0.000000000000000000e+00 -1.706081499999999807e+00 8.333333333333333703e-01
0.000000000000000000e+00 -1.706081499999999807e+00 1.250000000000000000e+00
0.000000000000000000e+00 -1.706081499999999807e+00 1.666666666666666741e+00
0.000000000000000000e+00 -1.706081499999999807e+00 2.083333333333333481e+00
0.000000000000000000e+00 -1.706081499999999807e+00 2.500000000000000000e+00
0.000000000000000000e+00 -1.706081499999999807e+00 2.916666666666666963e+00
0.000000000000000000e+00 -1.706081499999999807e+00 3.333333333333333481e+00
0.000000000000000000e+00 -1.706081499999999807e+00 3.750000000000000000e+00
0.000000000000000000e+00 -1.706081499999999807e+00 4.166666666666666963e+00
0.000000000000000000e+00 -1.706081499999999807e+00 4.583333333333333925e+00
0.000000000000000000e+00 -1.706081499999999807e+00 5.000000000000000000e+00
0.000000000000000000e+00 -1.706081499999999807e+00 5.416666666666666963e+00
0.000000000000000000e+00 -1.706081499999999807e+00 5.833333333333333925e+00
0.000000000000000000e+00 -1.706081499999999807e+00 6.250000000000000000e+00
0.000000000000000000e+00 -1.706081499999999807e+00 6.666666666666666963e+00
0.000000000000000000e+00 -1.706081499999999807e+00 7.083333333333333925e+00
0.000000000000000000e+00 -1.706081499999999807e+00 7.500000000000000000e+00
0.000000000000000000e+00 -1.706081499999999807e+00 7.916666666666666963e+00
0.000000000000000000e+00 -1.706081499999999807e+00 8.333333333333333925e+00
0.000000000000000000e+00 -1.706081499999999807e+00 8.750000000000000000e+00
0.000000000000000000e+00 -1.706081499999999807e+00 9.166666666666667851e+00
0.000000000000000000e+00 -1.706081499999999807e+00 9.583333333333333925e+00
5.686222499999997737e-01 -1.706081499999999807e+00 0.000000000000000000e+00
5.686222499999997737e-01 -1.706081499999999807e+00 4.166666666666666852e-01
5.686222499999997737e-01 -1.706081499999999807e+00 8.333333333333333703e-01
5.686222499999997737e-01 -1.706081499999999807e+00 1.250000000000000000e+00
5.686222499999997737e-01 -1.706081499999999807e+00 1.666666666666666741e+00
5.686222499999997737e-01 -1.706081499999999807e+00 2.083333333333333481e+00
5.686222499999997737e-01 -1.706081499999999807e+00 2.500000000000000000e+00
5.686222499999997737e-01 -1.706081499999999807e+00 2.916666666666666963e+00
5.686222499999997737e-01 -1.706081499999999807e+00 3.333333333333333481e+00
5.686222499999997737e-01 -1.706081499999999807e+00 3.750000000000000000e+00
5.686222499999997737e-01 -1.706081499999999807e+00 4.166666666666666963e+00
5.686222499999997737e-01 -1.706081499999999807e+00 4.583333333333333925e+00
5.686222499999997737e-01 -1.706081499999999807e+00 5.000000000000000000e+00
5.686222499999997737e-01 -1.706081499999999807e+00 5.416666666666666963e+00
5.686222499999997737e-01 -1.706081499999999807e+00 5.833333333333333925e+00
5.686222499999997737e-01 -1.706081499999999807e+00 6.250000000000000000e+00
5.686222499999997737e-01 -1.706081499999999807e+00 6.666666666666666963e+00
5.686222499999997737e-01 -1.706081499999999807e+00 7.083333333333333925e+00
5.686222499999997737e-01 -1.706081499999999807e+00 7.500000000000000000e+00
5.686222499999997737e-01 -1.706081499999999807e+00 7.916666666666666963e+00
5.686222499999997737e-01 -1.706081499999999807e+00 8.333333333333333925e+00
5.686222499999997737e-01 -1.706081499999999807e+00 8.750000000000000000e+00
5.686222499999997737e-01 -1.706081499999999807e+00 9.166666666666667851e+00
5.686222499999997737e-01 -1.706081499999999807e+00 9.583333333333333925e+00
1.137244500000000436e+00 -1.706081499999999807e+00 0.000000000000000000e+00
1.137244500000000436e+00 -1.706081499999999807e+00 4.166666666666666852e-01
1.137244500000000436e+00 -1.706081499999999807e+00 8.333333333333333703e-01
1.137244500000000436e+00 -1.706081499999999807e+00 1.250000000000000000e+00
1.137244500000000436e+00 -1.706081499999999807e+00 1.666666666666666741e+00
1.137244500000000436e+00 -1.706081499999999807e+00 2.083333333333333481e+00
1.137244500000000436e+00 -1.706081499999999807e+00 2.500000000000000000e+00
1.137244500000000436e+00 -1.706081499999999807e+00 2.916666666666666963e+00
1.137244500000000436e+00 -1.706081499999999807e+00 3.333333333333333481e+00
1.137244500000000436e+00 -1.706081499999999807e+00 3.750000000000000000e+00
1.137244500000000436e+00 -1.706081499999999807e+00 4.166666666666666963e+00
1.137244500000000436e+00 -1.706081499999999807e+00 4.583333333333333925e+00
1.137244500000000436e+00 -1.706081499999999807e+00 5.000000000000000000e+00
1.137244500000000436e+00 -1.706081499999999807e+00 5.416666666666666963e+00
1.137244500000000436e+00 -1.706081499999999807e+00 5.833333333333333925e+00
1.137244500000000436e+00 -1.706081499999999807e+00 6.250000000000000000e+00
1.137244500000000436e+00 -1.706081499999999807e+00 6.666666666666666963e+00
1.137244500000000436e+00 -1.706081499999999807e+00 7.083333333333333925e+00
1.137244500000000436e+00 -1.706081499999999807e+00 7.500000000000000000e+00
1.137244500000000436e+00 -1.706081499999999807e+00 7.916666666666666963e+00
1.137244500000000436e+00 -1.706081499999999807e+00 8.333333333333333925e+00
1.137244500000000436e+00 -1.706081499999999807e+00 8.750000000000000000e+00
1.137244500000000436e+00 -1.706081499999999807e+00 9.166666666666667851e+00
1.705866749999999321e+00 -1.706081499999999807e+00 0.000000000000000000e+00
1.705866749999999321e+00 -1.706081499999999807e+00 4.166666666666666852e-01
1.705866749999999321e+00 -1.706081499999999807e+00 8.333333333333333703e-01
1.705866749999999321e+00 -1.706081499999999807e+00 1.250000000000000000e+00
1.705866749999999321e+00 -1.706081499999999807e+00 1.666666666666666741e+00
1.705866749999999321e+00 -1.706081499999999807e+00 2.083333333333333481e+00
1.705866749999999321e+00 -1.706081499999999807e+00 2.500000000000000000e+00
1.705866749999999321e+00 -1.706081499999999807e+00 2.916666666666666963e+00
1.705866749999999321e+00 -1.706081499999999807e+00 3.333333333333333481e+00
1.705866749999999321e+00 -1.706081499999999807e+00 3.750000000000000000e+00
2.274488999999999983e+00 -1.706081499999999807e+00 0.000000000000000000e+00
2.274488999999999983e+00 -1.706081499999999807e+00 4.166666666666666852e-01
2.274488999999999983e+00 -1.706081499999999807e+00 8.333333333333333703e-01
2.274488999999999983e+00 -1.706081499999999807e+00 1.250000000000000000e+00
2.274488999999999983e+00 -1.706081499999999807e+00 1.666666666666666741e+00
2.274488999999999983e+00 -1.706081499999999807e+00 2.083333333333333481e+00
2.274488999999999983e+00 -1.706081499999999807e+00 2.500000000000000000e+00
2.274488999999999983e+00 -1.706081499999999807e+00 2.916666666666666963e+00
2.274488999999999983e+00 -1.706081499999999807e+00 3.333333333333333481e+00
2.274488999999999983e+00 -1.706081499999999807e+00 3.750000000000000000e+00
2.843111250000000645e+00 -1.706081499999999807e+00 0.000000000000000000e+00
2.843111250000000645e+00 -1.706081499999999807e+00 4.166666666666666852e-01
2.843111250000000645e+00 -1.706081499999999807e+00 8.333333333333333703e-01
2.843111250000000645e+00 -1.706081499999999807e+00 1.250000000000000000e+00
2.843111250000000645e+00 -1.706081499999999807e+00 1.666666666666666741e+00
2.843111250000000645e+00 -1.706081499999999807e+00 2.083333333333333481e+00
2.843111250000000645e+00 -1.706081499999999807e+00 2.500000000000000000e+00
2.843111250000000645e+00 -1.706081499999999807e+00 2.916666666666666963e+00
2.843111250000000645e+00 -1.706081499999999807e+00 3.333333333333333481e+00
2.843111250000000645e+00 -1.706081499999999807e+00 3.750000000000000000e+00
3.411733499999999530e+00 -1.706081499999999807e+00 0.000000000000000000e+00
3.411733499999999530e+00 -1.706081499999999807e+00 4.166666666666666852e-01
3.411733499999999530e+00 -1.706081499999999807e+00 8.333333333333333703e-01
3.411733499999999530e+00 -1.706081499999999807e+00 1.250000000000000000e+00
3.411733499999999530e+00 -1.706081499999999807e+00 1.666666666666666741e+00
3.411733499999999530e+00 -1.706081499999999807e+00 2.083333333333333481e+00
3.411733499999999530e+00 -1.706081499999999807e+00 2.500000000000000000e+00
3.411733499999999530e+00 -1.706081499999999807e+00 2.916666666666666963e+00
3.411733499999999530e+00 -1.706081499999999807e+00 3.333333333333333481e+00
3.411733499999999530e+00 -1.706081499999999807e+00 3.750000000000000000e+00
3.980355750000000192e+00 -1.706081499999999807e+00 0.000000000000000000e+00
3.980355750000000192e+00 -1.706081499999999807e+00 4.166666666666666852e-01
3.980355750000000192e+00 -1.706081499999999807e+00 8.333333333333333703e-01
3.980355750000000192e+00 -1.706081499999999807e+00 1.250000000000000000e+00
3.980355750000000192e+00 -1.706081499999999807e+00 1.666666666666666741e+00
3.980355750000000192e+00 -1.706081499999999807e+00 2.083333333333333481e+00
3.980355750000000192e+00 -1.706081499999999807e+00 2.500000000000000000e+00
3.980355750000000192e+00 -1.706081499999999807e+00 2.916666666666666963e+00
3.980355750000000192e+00 -1.706081499999999807e+00 3.333333333333333481e+00
3.980355750000000192e+00 -1.706081499999999807e+00 3.750000000000000000e+00
4.548977999999999078e+00 -1.706081499999999807e+00 0.000000000000000000e+00
4.548977999999999078e+00 -1.706081499999999807e+00 4.166666666666666852e-01
4.548977999999999078e+00 -1.706081499999999807e+00 8.333333333333333703e-01
4.548977999999999078e+00 -1.706081499999999807e+00 1.250000000000000000e+00
4.548977999999999078e+00 -1.706081499999999807e+00 1.666666666666666741e+00
4.548977999999999078e+00 -1.706081499999999807e+00 2.083333333333333481e+00
4.548977999999999078e+00 -1.706081499999999807e+00 2.500000000000000000e+00
4.548977999999999078e+00 -1.706081499999999807e+00 2.916666666666666963e+00
4.548977999999999078e+00 -1.706081499999999807e+00 3.333333333333333481e+00
4.548977999999999078e+00 -1.706081499999999807e+00 3.750000000000000000e+00
5.117600249999999740e+00 -1.706081499999999807e+00 0.000000000000000000e+00
5.117600249999999740e+00 -1.706081499999999807e+00 4.166666666666666852e-01
5.117600249999999740e+00 -1.706081499999999807e+00 8.333333333333333703e-01
5.117600249999999740e+00 -1.706081499999999807e+00 1.250000000000000000e+00
5.117600249999999740e+00 -1.706081499999999807e+00 1.666666666666666741e+00
5.117600249999999740e+00 -1.706081499999999807e+00 2.083333333333333481e+00
5.117600249999999740e+00 -1.706081499999999807e+00 2.500000000000000000e+00
5.117600249999999740e+00 -1.706081499999999807e+00 2.916666666666666963e+00
5.117600249999999740e+00 -1.706081499999999807e+00 3.333333333333333481e+00
5.117600249999999740e+00 -1.706081499999999807e+00 3.750000000000000000e+00
5.686222500000000402e+00 -1.706081499999999807e+00 0.000000000000000000e+00
5.686222500000000402e+00 -1.706081499999999807e+00 4.166666666666666852e-01
5.686222500000000402e+00 -1.706081499999999807e+00 8.333333333333333703e-01
5.686222500000000402e+00 -1.706081499999999807e+00 1.250000000000000000e+00
5.686222500000000402e+00 -1.706081499999999807e+00 1.666666666666666741e+00
5.686222500000000402e+00 -1.706081499999999807e+00 2.083333333333333481e+00
5.686222500000000402e+00 -1.706081499999999807e+00 2.500000000000000000e+00
5.686222500000000402e+00 -1.706081499999999807e+00 2.916666666666666963e+00
5.686222500000000402e+00 -1.706081499999999807e+00 3.333333333333333481e+00
5.686222500000000402e+00 -1.706081499999999807e+00 3.750000000000000000e+00
6.254844749999999287e+00 -1.706081499999999807e+00 0.000000000000000000e+00
6.254844749999999287e+00 -1.706081499999999807e+00 4.166666666666666852e-01
6.254844749999999287e+00 -1.706081499999999807e+00 8.333333333333333703e-01
6.254844749999999287e+00 -1.706081499999999807e+00 1.250000000000000000e+00
6.254844749999999287e+00 -1.706081499999999807e+00 1.666666666666666741e+00
6.254844749999999287e+00 -1.706081499999999807e+00 2.083333333333333481e+00
6.254844749999999287e+00 -1.706081499999999807e+00 2.500000000000000000e+00
6.254844749999999287e+00 -1.706081499999999807e+00 2.916666666666666963e+00
6.254844749999999287e+00 -1.706081499999999807e+00 3.333333333333333481e+00
-6.254844750000000175e+00 -1.137387666666666242e+00 0.000000000000000000e+00
-6.254844750000000175e+00 -1.137387666666666242e+00 4.166666666666666852e-01
-6.254844750000000175e+00 -1.137387666666666242e+00 8.333333333333333703e-01
-6.254844750000000175e+00 -1.137387666666666242e+00 1.250000000000000000e+00
-6.254844750000000175e+00 -1.137387666666666242e+00 1.666666666666666741e+00
-6.254844750000000175e+00 -1.137387666666666242e+00 2.083333333333333481e+00
-6.254844750000000175e+00 -1.137387666666666242e+00 2.500000000000000000e+00
-6.254844750000000175e+00 -1.137387666666666242e+00 2.916666666666666963e+00
-6.254844750000000175e+00 -1.137387666666666242e+00 3.333333333333333481e+00
-5.686222499999999513e+00 -1.137387666666666242e+00 0.000000000000000000e+00
-5.686222499999999513e+00 -1.137387666666666242e+00 4.166666666666666852e-01
-5.686222499999999513e+00 -1.137387666666666242e+00 8.333333333333333703e-01
-5.686222499999999513e+00 -1.137387666666666242e+00 1.250000000000000000e+00
-5.686222499999999513e+00 -1.137387666666666242e+00 1.666666666666666741e+00
-5.686222499999999513e+00 -1.137387666666666242e+00 2.083333333333333481e+00
-5.686222499999999513e+00 -1.137387666666666242e+00 2.500000000000000000e+00
-5.686222499999999513e+00 -1.137387666666666242e+00 2.916666666666666963e+00
-5.686222499999999513e+00 -1.137387666666666242e+00 3.333333333333333481e+00
-5.686222499999999513e+00 -1.137387666666666242e+00 3.750000000000000000e+00
-5.117600249999999740e+00 -1.137387666666666242e+00 0.000000000000000000e+00
-5.117600249999999740e+00 -1.137387666666666242e+00 4.166666666666666852e-01
-5.117600249999999740e+00 -1.137387666666666242e+00 8.333333333333333703e-01
-5.117600249999999740e+00 -1.137387666666666242e+00 1.250000000000000000e+00
-5.117600249999999740e+00 -1.137387666666666242e+00 1.666666666666666741e+00
-5.117600249999999740e+00 -1.137387666666666242e+00 2.083333333333333481e+00
-5.117600249999999740e+00 -1.137387666666666242e+00 2.500000000000000000e+00
-5.117600249999999740e+00 -1.137387666666666242e+00 2.916666666666666963e+00
-5.117600249999999740e+00 -1.137387666666666242e+00 3.333333333333333481e+00
-5.117600249999999740e+00 -1.137387666666666242e+00 3.750000000000000000e+00
-4.548977999999999966e+00 -1.137387666666666242e+00 0.000000000000000000e+00
-4.548977999999999966e+00 -1.137387666666666242e+00 4.166666666666666852e-01
-4.548977999999999966e+00 -1.137387666666666242e+00 8.333333333333333703e-01
-4.548977999999999966e+00 -1.137387666666666242e+00 1.250000000000000000e+00
-4.548977999999999966e+00 -1.137387666666666242e+00 1.666666666666666741e+00
-4.548977999999999966e+00 -1.137387666666666242e+00 2.083333333333333481e+00
-4.548977999999999966e+00 -1.137387666666666242e+00 2.500000000000000000e+00
-4.548977999999999966e+00 -1.137387666666666242e+00 2.916666666666666963e+00
-4.548977999999999966e+00 -1.137387666666666242e+00 3.333333333333333481e+00
-4.548977999999999966e+00 -1.137387666666666242e+00 3.750000000000000000e+00
-3.980355750000000192e+00 -1.137387666666666242e+00 0.000000000000000000e+00
-3.980355750000000192e+00 -1.137387666666666242e+00 4.166666666666666852e-01
-3.980355750000000192e+00 -1.137387666666666242e+00 8.333333333333333703e-01
-3.980355750000000192e+00 -1.137387666666666242e+00 1.250000000000000000e+00
-3.980355750000000192e+00 -1.137387666666666242e+00 1.666666666666666741e+00
-3.980355750000000192e+00 -1.137387666666666242e+00 2.083333333333333481e+00
-3.980355750000000192e+00 -1.137387666666666242e+00 2.500000000000000000e+00
-3.980355750000000192e+00 -1.137387666666666242e+00 2.916666666666666963e+00
-3.980355750000000192e+00 -1.137387666666666242e+00 3.333333333333333481e+00
-3.980355750000000192e+00 -1.137387666666666242e+00 3.750000000000000000e+00
-3.411733499999999975e+00 -1.137387666666666242e+00 0.000000000000000000e+00
-3.411733499999999975e+00 -1.137387666666666242e+00 4.166666666666666852e-01
-3.411733499999999975e+00 -1.137387666666666242e+00 8.333333333333333703e-01
-3.411733499999999975e+00 -1.137387666666666242e+00 1.250000000000000000e+00
-3.411733499999999975e+00 -1.137387666666666242e+00 1.666666666666666741e+00
-3.411733499999999975e+00 -1.137387666666666242e+00 2.083333333333333481e+00
-3.411733499999999975e+00 -1.137387666666666242e+00 2.500000000000000000e+00
-3.411733499999999975e+00 -1.137387666666666242e+00 2.916666666666666963e+00
-3.411733499999999975e+00 -1.137387666666666242e+00 3.333333333333333481e+00
-3.411733499999999975e+00 -1.137387666666666242e+00 3.750000000000000000e+00
-2.843111249999999757e+00 -1.137387666666666242e+00 0.000000000000000000e+00
-2.843111249999999757e+00 -1.137387666666666242e+00 4.166666666666666852e-01
-2.843111249999999757e+00 -1.137387666666666242e+00 8.333333333333333703e-01
-2.843111249999999757e+00 -1.137387666666666242e+00 1.250000000000000000e+00
-2.843111249999999757e+00 -1.137387666666666242e+00 1.666666666666666741e+00
-2.843111249999999757e+00 -1.137387666666666242e+00 2.083333333333333481e+00
-2.843111249999999757e+00 -1.137387666666666242e+00 2.500000000000000000e+00
-2.843111249999999757e+00 -1.137387666666666242e+00 2.916666666666666963e+00
-2.843111249999999757e+00 -1.137387666666666242e+00 3.333333333333333481e+00
-2.843111249999999757e+00 -1.137387666666666242e+00 3.750000000000000000e+00
-2.274488999999999983e+00 -1.137387666666666242e+00 0.000000000000000000e+00
-2.274488999999999983e+00 -1.137387666666666242e+00 4.166666666666666852e-01
-2.274488999999999983e+00 -1.137387666666666242e+00 8.333333333333333703e-01
-2.274488999999999983e+00 -1.137387666666666242e+00 1.250000000000000000e+00
-2.274488999999999983e+00 -1.137387666666666242e+00 1.666666666666666741e+00
-2.274488999999999983e+00 -1.137387666666666242e+00 2.083333333333333481e+00
-2.274488999999999983e+00 -1.137387666666666242e+00 2.500000000000000000e+00
-2.274488999999999983e+00 -1.137387666666666242e+00 2.916666666666666963e+00
-2.274488999999999983e+00 -1.137387666666666242e+00 3.333333333333333481e+00
-2.274488999999999983e+00 -1.137387666666666242e+00 3.750000000000000000e+00
-1.705866750000000209e+00 -1.137387666666666242e+00 0.000000000000000000e+00
-1.705866750000000209e+00 -1.137387666666666242e+00 4.166666666666666852e-01
-1.705866750000000209e+00 -1.137387666666666242e+00 8.333333333333333703e-01
-1.705866750000000209e+00 -1.137387666666666242e+00 1.250000000000000000e+00
-1.705866750000000209e+00 -1.137387666666666242e+00 1.666666666666666741e+00
-1.705866750000000209e+00 -1.137387666666666242e+00 2.083333333333333481e+00
-1.705866750000000209e+00 -1.137387666666666242e+00 2.500000000000000000e+00
-1.705866750000000209e+00 -1.137387666666666242e+00 2.916666666666666963e+00
-1.705866750000000209e+00 -1.137387666666666242e+00 3.333333333333333481e+00
-1.705866750000000209e+00 -1.137387666666666242e+00 3.750000000000000000e+00
-1.705866750000000209e+00 -1.137387666666666242e+00 4.166666666666666963e+00
-1.705866750000000209e+00 -1.137387666666666242e+00 4.583333333333333925e+00
-1.705866750000000209e+00 -1.137387666666666242e+00 5.000000000000000000e+00
-1.705866750000000209e+00 -1.137387666666666242e+00 5.416666666666666963e+00
-1.705866750000000209e+00 -1.137387666666666242e+00 5.833333333333333925e+00
-1.705866750000000209e+00 -1.137387666666666242e+00 6.250000000000000000e+00
-1.705866750000000209e+00 -1.137387666666666242e+00 6.666666666666666963e+00
-1.705866750000000209e+00 -1.137387666666666242e+00 7.083333333333333925e+00
-1.705866750000000209e+00 -1.137387666666666242e+00 7.500000000000000000e+00
-1.705866750000000209e+00 -1.137387666666666242e+00 7.916666666666666963e+00
-1.705866750000000209e+00 -1.137387666666666242e+00 8.333333333333333925e+00
-1.705866750000000209e+00 -1.137387666666666242e+00 8.750000000000000000e+00
-1.705866750000000209e+00 -1.137387666666666242e+00 9.166666666666667851e+00
-1.137244500000000436e+00 -1.137387666666666242e+00 0.000000000000000000e+00
-1.137244500000000436e+00 -1.137387666666666242e+00 4.166666666666666852e-01
-1.137244500000000436e+00 -1.137387666666666242e+00 8.333333333333333703e-01
-1.137244500000000436e+00 -1.137387666666666242e+00 1.250000000000000000e+00
-1.137244500000000436e+00 -1.137387666666666242e+00 1.666666666666666741e+00
-1.137244500000000436e+00 -1.137387666666666242e+00 2.083333333333333481e+00
-1.137244500000000436e+00 -1.137387666666666242e+00 2.500000000000000000e+00
-1.137244500000000436e+00 -1.137387666666666242e+00 2.916666666666666963e+00
-1.137244500000000436e+00 -1.137387666666666242e+00 3.333333333333333481e+00
-1.137244500000000436e+00 -1.137387666666666242e+00 3.750000000000000000e+00
-1.137244500000000436e+00 -1.137387666666666242e+00 4.166666666666666963e+00
-1.137244500000000436e+00 -1.137387666666666242e+00 4.583333333333333925e+00
-1.137244500000000436e+00 -1.137387666666666242e+00 5.000000000000000000e+00
-1.137244500000000436e+00 -1.137387666666666242e+00 5.416666666666666963e+00
-1.137244500000000436e+00 -1.137387666666666242e+00 5.833333333333333925e+00
-1.137244500000000436e+00 -1.137387666666666242e+00 6.250000000000000000e+00
-1.137244500000000436e+00 -1.137387666666666242e+00 6.666666666666666963e+00
-1.137244500000000436e+00 -1.137387666666666242e+00 7.083333333333333925e+00
-1.137244500000000436e+00 -1.137387666666666242e+00 7.500000000000000000e+00
-1.137244500000000436e+00 -1.137387666666666242e+00 7.916666666666666963e+00
-1.137244500000000436e+00 -1.137387666666666242e+00 8.333333333333333925e+00
-1.137244500000000436e+00 -1.137387666666666242e+00 8.750000000000000000e+00
-1.137244500000000436e+00 -1.137387666666666242e+00 9.166666666666667851e+00
-1.137244500000000436e+00 -1.137387666666666242e+00 9.583333333333333925e+00
-5.686222499999997737e-01 -1.137387666666666242e+00 0.000000000000000000e+00
-5.686222499999997737e-01 -1.137387666666666242e+00 4.166666666666666852e-01
-5.686222499999997737e-01 -1.137387666666666242e+00 8.333333333333333703e-01
-5.686222499999997737e-01 -1.137387666666666242e+00 1.250000000000000000e+00
-5.686222499999997737e-01 -1.137387666666666242e+00 1.666666666666666741e+00
-5.686222499999997737e-01 -1.137387666666666242e+00 2.083333333333333481e+00
-5.686222499999997737e-01 -1.137387666666666242e+00 2.500000000000000000e+00
-5.686222499999997737e-01 -1.137387666666666242e+00 2.916666666666666963e+00
-5.686222499999997737e-01 -1.137387666666666242e+00 3.333333333333333481e+00
-5.686222499999997737e-01 -1.137387666666666242e+00 3.750000000000000000e+00
-5.686222499999997737e-01 -1.137387666666666242e+00 4.166666666666666963e+00
-5.686222499999997737e-01 -1.137387666666666242e+00 4.583333333333333925e+00
-5.686222499999997737e-01 -1.137387666666666242e+00 5.000000000000000000e+00
-5.686222499999997737e-01 -1.137387666666666242e+00 5.416666666666666963e+00
-5.686222499999997737e-01 -1.137387666666666242e+00 5.833333333333333925e+00
-5.686222499999997737e-01 -1.137387666666666242e+00 6.250000000000000000e+00
-5.686222499999997737e-01 -1.137387666666666242e+00 6.666666666666666963e+00
-5.686222499999997737e-01 -1.137387666666666242e+00 7.083333333333333925e+00
-5.686222499999997737e-01 -1.137387666666666242e+00 7.500000000000000000e+00
-5.686222499999997737e-01 -1.137387666666666242e+00 7.916666666666666963e+00
-5.686222499999997737e-01 -1.137387666666666242e+00 8.333333333333333925e+00
-5.686222499999997737e-01 -1.137387666666666242e+00 8.750000000000000000e+00
-5.686222499999997737e-01 -1.137387666666666242e+00 9.166666666666667851e+00
-5.686222499999997737e-01 -1.137387666666666242e+00 9.583333333333333925e+00
-5.686222499999997737e-01 -1.137387666666666242e+00 1.000000000000000000e+01
0.000000000000000000e+00 -1.137387666666666242e+00 0.000000000000000000e+00
0.000000000000000000e+00 -1.137387666666666242e+00 4.166666666666666852e-01
0.000000000000000000e+00 -1.137387666666666242e+00 8.333333333333333703e-01
0.000000000000000000e+00 -1.137387666666666242e+00 1.250000000000000000e+00
0.000000000000000000e+00 -1.137387666666666242e+00 1.666666666666666741e+00
0.000000000000000000e+00 -1.137387666666666242e+00 2.083333333333333481e+00
0.000000000000000000e+00 -1.137387666666666242e+00 2.500000000000000000e+00
0.000000000000000000e+00 -1.137387666666666242e+00 2.916666666666666963e+00
0.000000000000000000e+00 -1.137387666666666242e+00 3.333333333333333481e+00
0.000000000000000000e+00 -1.137387666666666242e+00 3.750000000000000000e+00
0.000000000000000000e+00 -1.137387666666666242e+00 4.166666666666666963e+00
0.000000000000000000e+00 -1.137387666666666242e+00 4.583333333333333925e+00
0.000000000000000000e+00 -1.137387666666666242e+00 5.000000000000000000e+00
0.000000000000000000e+00 -1.137387666666666242e+00 5.416666666666666963e+00
0.000000000000000000e+00 -1.137387666666666242e+00 5.833333333333333925e+00
0.000000000000000000e+00 -1.137387666666666242e+00 6.250000000000000000e+00
0.000000000000000000e+00 -1.137387666666666242e+00 6.666666666666666963e+00
0.000000000000000000e+00 -1.137387666666666242e+00 7.083333333333333925e+00
0.000000000000000000e+00 -1.137387666666666242e+00 7.500000000000000000e+00
0.000000000000000000e+00 -1.137387666666666242e+00 7.916666666666666963e+00
0.000000000000000000e+00 -1.137387666666666242e+00 8.333333333333333925e+00
0.000000000000000000e+00 -1.137387666666666242e+00 8.750000000000000000e+00
0.000000000000000000e+00 -1.137387666666666242e+00 9.166666666666667851e+00
0.000000000000000000e+00 -1.137387666666666242e+00 9.583333333333333925e+00
0.000000000000000000e+00 -1.137387666666666242e+00 1.000000000000000000e+01
5.686222499999997737e-01 -1.137387666666666242e+00 0.000000000000000000e+00
5.686222499999997737e-01 -1.137387666666666242e+00 4.166666666666666852e-01
5.686222499999997737e-01 -1.137387666666666242e+00 8.333333333333333703e-01
5.686222499999997737e-01 -1.137387666666666242e+00 1.250000000000000000e+00
5.686222499999997737e-01 -1.137387666666666242e+00 1.666666666666666741e+00
5.686222499999997737e-01 -1.137387666666666242e+00 2.083333333333333481e+00
5.686222499999997737e-01 -1.137387666666666242e+00 2.500000000000000000e+00
5.686222499999997737e-01 -1.137387666666666242e+00 2.916666666666666963e+00
5.686222499999997737e-01 -1.137387666666666242e+00 3.333333333333333481e+00
5.686222499999997737e-01 -1.137387666666666242e+00 3.750000000000000000e+00
5.686222499999997737e-01 -1.137387666666666242e+00 4.166666666666666963e+00
5.686222499999997737e-01 -1.137387666666666242e+00 4.583333333333333925e+00
5.686222499999997737e-01 -1.137387666666666242e+00 5.000000000000000000e+00
5.686222499999997737e-01 -1.137387666666666242e+00 5.416666666666666963e+00
5.686222499999997737e-01 -1.137387666666666242e+00 5.833333333333333925e+00
5.686222499999997737e-01 -1.137387666666666242e+00 6.250000000000000000e+00
5.686222499999997737e-01 -1.137387666666666242e+00 6.666666666666666963e+00
5.686222499999997737e-01 -1.137387666666666242e+00 7.083333333333333925e+00
5.686222499999997737e-01 -1.137387666666666242e+00 7.500000000000000000e+00
5.686222499999997737e-01 -1.137387666666666242e+00 7.916666666666666963e+00
5.686222499999997737e-01 -1.137387666666666242e+00 8.333333333333333925e+00
5.686222499999997737e-01 -1.137387666666666242e+00 8.750000000000000000e+00
5.686222499999997737e-01 -1.137387666666666242e+00 9.166666666666667851e+00
5.686222499999997737e-01 -1.137387666666666242e+00 9.583333333333333925e+00
1.137244500000000436e+00 -1.137387666666666242e+00 0.000000000000000000e+00
1.137244500000000436e+00 -1.137387666666666242e+00 4.166666666666666852e-01
1.137244500000000436e+00 -1.137387666666666242e+00 8.333333333333333703e-01
1.137244500000000436e+00 -1.137387666666666242e+00 1.250000000000000000e+00
1.137244500000000436e+00 -1.137387666666666242e+00 1.666666666666666741e+00
1.137244500000000436e+00 -1.137387666666666242e+00 2.083333333333333481e+00
1.137244500000000436e+00 -1.137387666666666242e+00 2.500000000000000000e+00
1.137244500000000436e+00 -1.137387666666666242e+00 2.916666666666666963e+00
1.137244500000000436e+00 -1.137387666666666242e+00 3.333333333333333481e+00
1.137244500000000436e+00 -1.137387666666666242e+00 3.750000000000000000e+00
1.137244500000000436e+00 -1.137387666666666242e+00 4.166666666666666963e+00
1.137244500000000436e+00 -1.137387666666666242e+00 4.583333333333333925e+00
1.137244500000000436e+00 -1.137387666666666242e+00 5.000000000000000000e+00
1.137244500000000436e+00 -1.137387666666666242e+00 5.416666666666666963e+00
1.137244500000000436e+00 -1.137387666666666242e+00 5.833333333333333925e+00
1.137244500000000436e+00 -1.137387666666666242e+00 6.250000000000000000e+00
1.137244500000000436e+00 -1.137387666666666242e+00 6.666666666666666963e+00
1.137244500000000436e+00 -1.137387666666666242e+00 7.083333333333333925e+00
1.137244500000000436e+00 -1.137387666666666242e+00 7.500000000000000000e+00
1.137244500000000436e+00 -1.137387666666666242e+00 7.916666666666666963e+00
1.137244500000000436e+00 -1.137387666666666242e+00 8.333333333333333925e+00
1.137244500000000436e+00 -1.137387666666666242e+00 8.750000000000000000e+00
1.137244500000000436e+00 -1.137387666666666242e+00 9.166666666666667851e+00
1.137244500000000436e+00 -1.137387666666666242e+00 9.583333333333333925e+00
1.705866749999999321e+00 -1.137387666666666242e+00 0.000000000000000000e+00
1.705866749999999321e+00 -1.137387666666666242e+00 4.166666666666666852e-01
1.705866749999999321e+00 -1.137387666666666242e+00 8.333333333333333703e-01
1.705866749999999321e+00 -1.137387666666666242e+00 1.250000000000000000e+00
1.705866749999999321e+00 -1.137387666666666242e+00 1.666666666666666741e+00
1.705866749999999321e+00 -1.137387666666666242e+00 2.083333333333333481e+00
1.705866749999999321e+00 -1.137387666666666242e+00 2.500000000000000000e+00
1.705866749999999321e+00 -1.137387666666666242e+00 2.916666666666666963e+00
1.705866749999999321e+00 -1.137387666666666242e+00 3.333333333333333481e+00
1.705866749999999321e+00 -1.137387666666666242e+00 3.750000000000000000e+00
1.705866749999999321e+00 -1.137387666666666242e+00 4.166666666666666963e+00
1.705866749999999321e+00 -1.137387666666666242e+00 4.583333333333333925e+00
1.705866749999999321e+00 -1.137387666666666242e+00 5.000000000000000000e+00
1.705866749999999321e+00 -1.137387666666666242e+00 5.416666666666666963e+00
1.705866749999999321e+00 -1.137387666666666242e+00 5.833333333333333925e+00
1.705866749999999321e+00 -1.137387666666666242e+00 6.250000000000000000e+00
1.705866749999999321e+00 -1.137387666666666242e+00 6.666666666666666963e+00
1.705866749999999321e+00 -1.137387666666666242e+00 7.083333333333333925e+00
1.705866749999999321e+00 -1.137387666666666242e+00 7.500000000000000000e+00
1.705866749999999321e+00 -1.137387666666666242e+00 7.916666666666666963e+00
1.705866749999999321e+00 -1.137387666666666242e+00 8.333333333333333925e+00
1.705866749999999321e+00 -1.137387666666666242e+00 8.750000000000000000e+00
1.705866749999999321e+00 -1.137387666666666242e+00 9.166666666666667851e+00
2.274488999999999983e+00 -1.137387666666666242e+00 0.000000000000000000e+00
2.274488999999999983e+00 -1.137387666666666242e+00 4.166666666666666852e-01
2.274488999999999983e+00 -1.137387666666666242e+00 8.333333333333333703e-01
2.274488999999999983e+00 -1.137387666666666242e+00 1.250000000000000000e+00
2.274488999999999983e+00 -1.137387666666666242e+00 1.666666666666666741e+00
2.274488999999999983e+00 -1.137387666666666242e+00 2.083333333333333481e+00
2.274488999999999983e+00 -1.137387666666666242e+00 2.500000000000000000e+00
2.274488999999999983e+00 -1.137387666666666242e+00 2.916666666666666963e+00
2.274488999999999983e+00 -1.137387666666666242e+00 3.333333333333333481e+00
2.274488999999999983e+00 -1.137387666666666242e+00 3.750000000000000000e+00
2.843111250000000645e+00 -1.137387666666666242e+00 0.000000000000000000e+00
2.843111250000000645e+00 -1.137387666666666242e+00 4.166666666666666852e-01
2.843111250000000645e+00 -1.137387666666666242e+00 8.333333333333333703e-01
2.843111250000000645e+00 -1.137387666666666242e+00 1.250000000000000000e+00
2.843111250000000645e+00 -1.137387666666666242e+00 1.666666666666666741e+00
2.843111250000000645e+00 -1.137387666666666242e+00 2.083333333333333481e+00
2.843111250000000645e+00 -1.137387666666666242e+00 2.500000000000000000e+00
2.843111250000000645e+00 -1.137387666666666242e+00 2.916666666666666963e+00
2.843111250000000645e+00 -1.137387666666666242e+00 3.333333333333333481e+00
2.843111250000000645e+00 -1.137387666666666242e+00 3.750000000000000000e+00
3.411733499999999530e+00 -1.137387666666666242e+00 0.000000000000000000e+00
3.411733499999999530e+00 -1.137387666666666242e+00 4.166666666666666852e-01
3.411733499999999530e+00 -1.137387666666666242e+00 8.333333333333333703e-01
3.411733499999999530e+00 -1.137387666666666242e+00 1.250000000000000000e+00
3.411733499999999530e+00 -1.137387666666666242e+00 1.666666666666666741e+00
3.411733499999999530e+00 -1.137387666666666242e+00 2.083333333333333481e+00
3.411733499999999530e+00 -1.137387666666666242e+00 2.500000000000000000e+00
3.411733499999999530e+00 -1.137387666666666242e+00 2.916666666666666963e+00
3.411733499999999530e+00 -1.137387666666666242e+00 3.333333333333333481e+00
3.411733499999999530e+00 -1.137387666666666242e+00 3.750000000000000000e+00
3.980355750000000192e+00 -1.137387666666666242e+00 0.000000000000000000e+00
3.980355750000000192e+00 -1.137387666666666242e+00 4.166666666666666852e-01
3.980355750000000192e+00 -1.137387666666666242e+00 8.333333333333333703e-01
3.980355750000000192e+00 -1.137387666666666242e+00 1.250000000000000000e+00
3.980355750000000192e+00 -1.137387666666666242e+00 1.666666666666666741e+00
3.980355750000000192e+00 -1.137387666666666242e+00 2.083333333333333481e+00
3.980355750000000192e+00 -1.137387666666666242e+00 2.500000000000000000e+00
3.980355750000000192e+00 -1.137387666666666242e+00 2.916666666666666963e+00
3.980355750000000192e+00 -1.137387666666666242e+00 3.333333333333333481e+00
3.980355750000000192e+00 -1.137387666666666242e+00 3.750000000000000000e+00
4.548977999999999078e+00 -1.137387666666666242e+00 0.000000000000000000e+00
4.548977999999999078e+00 -1.137387666666666242e+00 4.166666666666666852e-01
4.548977999999999078e+00 -1.137387666666666242e+00 8.333333333333333703e-01
4.548977999999999078e+00 -1.137387666666666242e+00 1.250000000000000000e+00
4.548977999999999078e+00 -1.137387666666666242e+00 1.666666666666666741e+00
4.548977999999999078e+00 -1.137387666666666242e+00 2.083333333333333481e+00
4.548977999999999078e+00 -1.137387666666666242e+00 2.500000000000000000e+00
4.548977999999999078e+00 -1.137387666666666242e+00 2.916666666666666963e+00
4.548977999999999078e+00 -1.137387666666666242e+00 3.333333333333333481e+00
4.548977999999999078e+00 -1.137387666666666242e+00 3.750000000000000000e+00
5.117600249999999740e+00 -1.137387666666666242e+00 0.000000000000000000e+00
5.117600249999999740e+00 -1.137387666666666242e+00 4.166666666666666852e-01
5.117600249999999740e+00 -1.137387666666666242e+00 8.333333333333333703e-01
5.117600249999999740e+00 -1.137387666666666242e+00 1.250000000000000000e+00
5.117600249999999740e+00 -1.137387666666666242e+00 1.666666666666666741e+00
5.117600249999999740e+00 -1.137387666666666242e+00 2.083333333333333481e+00
5.117600249999999740e+00 -1.137387666666666242e+00 2.500000000000000000e+00
5.117600249999999740e+00 -1.137387666666666242e+00 2.916666666666666963e+00
5.117600249999999740e+00 -1.137387666666666242e+00 3.333333333333333481e+00
5.117600249999999740e+00 -1.137387666666666242e+00 3.750000000000000000e+00
5.686222500000000402e+00 -1.137387666666666242e+00 0.000000000000000000e+00
5.686222500000000402e+00 -1.137387666666666242e+00 4.166666666666666852e-01
5.686222500000000402e+00 -1.137387666666666242e+00 8.333333333333333703e-01
5.686222500000000402e+00 -1.137387666666666242e+00 1.250000000000000000e+00
5.686222500000000402e+00 -1.137387666666666242e+00 1.666666666666666741e+00
5.686222500000000402e+00 -1.137387666666666242e+00 2.083333333333333481e+00
5.686222500000000402e+00 -1.137387666666666242e+00 2.500000000000000000e+00
5.686222500000000402e+00 -1.137387666666666242e+00 2.916666666666666963e+00
5.686222500000000402e+00 -1.137387666666666242e+00 3.333333333333333481e+00
5.686222500000000402e+00 -1.137387666666666242e+00 3.750000000000000000e+00
6.254844749999999287e+00 -1.137387666666666242e+00 0.000000000000000000e+00
6.254844749999999287e+00 -1.137387666666666242e+00 4.166666666666666852e-01
6.254844749999999287e+00 -1.137387666666666242e+00 8.333333333333333703e-01
6.254844749999999287e+00 -1.137387666666666242e+00 1.250000000000000000e+00
6.254844749999999287e+00 -1.137387666666666242e+00 1.666666666666666741e+00
6.254844749999999287e+00 -1.137387666666666242e+00 2.083333333333333481e+00
6.254844749999999287e+00 -1.137387666666666242e+00 2.500000000000000000e+00
6.254844749999999287e+00 -1.137387666666666242e+00 2.916666666666666963e+00
6.254844749999999287e+00 -1.137387666666666242e+00 3.333333333333333481e+00
-6.254844750000000175e+00 -5.686938333333335649e-01 0.000000000000000000e+00
-6.254844750000000175e+00 -5.686938333333335649e-01 4.166666666666666852e-01
-6.254844750000000175e+00 -5.686938333333335649e-01 8.333333333333333703e-01
-6.254844750000000175e+00 -5.686938333333335649e-01 1.250000000000000000e+00
-6.254844750000000175e+00 -5.686938333333335649e-01 1.666666666666666741e+00
-6.254844750000000175e+00 -5.686938333333335649e-01 2.083333333333333481e+00
-6.254844750000000175e+00 -5.686938333333335649e-01 2.500000000000000000e+00
-6.254844750000000175e+00 -5.686938333333335649e-01 2.916666666666666963e+00
-6.254844750000000175e+00 -5.686938333333335649e-01 3.333333333333333481e+00
-5.686222499999999513e+00 -5.686938333333335649e-01 0.000000000000000000e+00
-5.686222499999999513e+00 -5.686938333333335649e-01 4.166666666666666852e-01
-5.686222499999999513e+00 -5.686938333333335649e-01 8.333333333333333703e-01
-5.686222499999999513e+00 -5.686938333333335649e-01 1.250000000000000000e+00
-5.686222499999999513e+00 -5.686938333333335649e-01 1.666666666666666741e+00
-5.686222499999999513e+00 -5.686938333333335649e-01 2.083333333333333481e+00
-5.686222499999999513e+00 -5.686938333333335649e-01 2.500000000000000000e+00
-5.686222499999999513e+00 -5.686938333333335649e-01 2.916666666666666963e+00
-5.686222499999999513e+00 -5.686938333333335649e-01 3.333333333333333481e+00
-5.686222499999999513e+00 -5.686938333333335649e-01 3.750000000000000000e+00
-5.117600249999999740e+00 -5.686938333333335649e-01 0.000000000000000000e+00
-5.117600249999999740e+00 -5.686938333333335649e-01 4.166666666666666852e-01
-5.117600249999999740e+00 -5.686938333333335649e-01 8.333333333333333703e-01
-5.117600249999999740e+00 -5.686938333333335649e-01 1.250000000000000000e+00
-5.117600249999999740e+00 -5.686938333333335649e-01 1.666666666666666741e+00
-5.117600249999999740e+00 -5.686938333333335649e-01 2.083333333333333481e+00
-5.117600249999999740e+00 -5.686938333333335649e-01 2.500000000000000000e+00
-5.117600249999999740e+00 -5.686938333333335649e-01 2.916666666666666963e+00
-5.117600249999999740e+00 -5.686938333333335649e-01 3.333333333333333481e+00
-5.117600249999999740e+00 -5.686938333333335649e-01 3.750000000000000000e+00
-4.548977999999999966e+00 -5.686938333333335649e-01 0.000000000000000000e+00
-4.548977999999999966e+00 -5.686938333333335649e-01 4.166666666666666852e-01
-4.548977999999999966e+00 -5.686938333333335649e-01 8.333333333333333703e-01
-4.548977999999999966e+00 -5.686938333333335649e-01 1.250000000000000000e+00
-4.548977999999999966e+00 -5.686938333333335649e-01 1.666666666666666741e+00
-4.548977999999999966e+00 -5.686938333333335649e-01 2.083333333333333481e+00
-4.548977999999999966e+00 -5.686938333333335649e-01 2.500000000000000000e+00
-4.548977999999999966e+00 -5.686938333333335649e-01 2.916666666666666963e+00
-4.548977999999999966e+00 -5.686938333333335649e-01 3.333333333333333481e+00
-4.548977999999999966e+00 -5.686938333333335649e-01 3.750000000000000000e+00
-3.980355750000000192e+00 -5.686938333333335649e-01 0.000000000000000000e+00
-3.980355750000000192e+00 -5.686938333333335649e-01 4.166666666666666852e-01
-3.980355750000000192e+00 -5.686938333333335649e-01 8.333333333333333703e-01
-3.980355750000000192e+00 -5.686938333333335649e-01 1.250000000000000000e+00
-3.980355750000000192e+00 -5.686938333333335649e-01 1.666666666666666741e+00
-3.980355750000000192e+00 -5.686938333333335649e-01 2.083333333333333481e+00
-3.980355750000000192e+00 -5.686938333333335649e-01 2.500000000000000000e+00
-3.980355750000000192e+00 -5.686938333333335649e-01 2.916666666666666963e+00
-3.980355750000000192e+00 -5.686938333333335649e-01 3.333333333333333481e+00
-3.980355750000000192e+00 -5.686938333333335649e-01 3.750000000000000000e+00
-3.411733499999999975e+00 -5.686938333333335649e-01 0.000000000000000000e+00
-3.411733499999999975e+00 -5.686938333333335649e-01 4.166666666666666852e-01
-3.411733499999999975e+00 -5.686938333333335649e-01 8.333333333333333703e-01
-3.411733499999999975e+00 -5.686938333333335649e-01 1.250000000000000000e+00
-3.411733499999999975e+00 -5.686938333333335649e-01 1.666666666666666741e+00
-3.411733499999999975e+00 -5.686938333333335649e-01 2.083333333333333481e+00
-3.411733499999999975e+00 -5.686938333333335649e-01 2.500000000000000000e+00
-3.411733499999999975e+00 -5.686938333333335649e-01 2.916666666666666963e+00
-3.411733499999999975e+00 -5.686938333333335649e-01 3.333333333333333481e+00
-3.411733499999999975e+00 -5.686938333333335649e-01 3.750000000000000000e+00
-2.843111249999999757e+00 -5.686938333333335649e-01 0.000000000000000000e+00
-2.843111249999999757e+00 -5.686938333333335649e-01 4.166666666666666852e-01
-2.843111249999999757e+00 -5.686938333333335649e-01 8.333333333333333703e-01
-2.843111249999999757e+00 -5.686938333333335649e-01 1.250000000000000000e+00
-2.843111249999999757e+00 -5.686938333333335649e-01 1.666666666666666741e+00
-2.843111249999999757e+00 -5.686938333333335649e-01 2.083333333333333481e+00
-2.843111249999999757e+00 -5.686938333333335649e-01 2.500000000000000000e+00
-2.843111249999999757e+00 -5.686938333333335649e-01 2.916666666666666963e+00
-2.843111249999999757e+00 -5.686938333333335649e-01 3.333333333333333481e+00
-2.843111249999999757e+00 -5.686938333333335649e-01 3.750000000000000000e+00
-2.274488999999999983e+00 -5.686938333333335649e-01 0.000000000000000000e+00
-2.274488999999999983e+00 -5.686938333333335649e-01 4.166666666666666852e-01
-2.274488999999999983e+00 -5.686938333333335649e-01 8.333333333333333703e-01
-2.274488999999999983e+00 -5.686938333333335649e-01 1.250000000000000000e+00
-2.274488999999999983e+00 -5.686938333333335649e-01 1.666666666666666741e+00
-2.274488999999999983e+00 -5.686938333333335649e-01 2.083333333333333481e+00
-2.274488999999999983e+00 -5.686938333333335649e-01 2.500000000000000000e+00
-2.274488999999999983e+00 -5.686938333333335649e-01 2.916666666666666963e+00
-2.274488999999999983e+00 -5.686938333333335649e-01 3.333333333333333481e+00
-2.274488999999999983e+00 -5.686938333333335649e-01 3.750000000000000000e+00
-2.274488999999999983e+00 -5.686938333333335649e-01 4.166666666666666963e+00
-2.274488999999999983e+00 -5.686938333333335649e-01 4.583333333333333925e+00
-2.274488999999999983e+00 -5.686938333333335649e-01 5.000000000000000000e+00
-2.274488999999999983e+00 -5.686938333333335649e-01 5.416666666666666963e+00
-2.274488999999999983e+00 -5.686938333333335649e-01 5.833333333333333925e+00
-2.274488999999999983e+00 -5.686938333333335649e-01 6.250000000000000000e+00
-2.274488999999999983e+00 -5.686938333333335649e-01 6.666666666666666963e+00
-2.274488999999999983e+00 -5.686938333333335649e-01 7.083333333333333925e+00
-2.274488999999999983e+00 -5.686938333333335649e-01 7.500000000000000000e+00
-2.274488999999999983e+00 -5.686938333333335649e-01 7.916666666666666963e+00
-2.274488999999999983e+00 -5.686938333333335649e-01 8.333333333333333925e+00
-2.274488999999999983e+00 -5.686938333333335649e-01 8.750000000000000000e+00
-1.705866750000000209e+00 -5.686938333333335649e-01 0.000000000000000000e+00
-1.705866750000000209e+00 -5.686938333333335649e-01 4.166666666666666852e-01
-1.705866750000000209e+00 -5.686938333333335649e-01 8.333333333333333703e-01
-1.705866750000000209e+00 -5.686938333333335649e-01 1.250000000000000000e+00
-1.705866750000000209e+00 -5.686938333333335649e-01 1.666666666666666741e+00
-1.705866750000000209e+00 -5.686938333333335649e-01 2.083333333333333481e+00
-1.705866750000000209e+00 -5.686938333333335649e-01 2.500000000000000000e+00
-1.705866750000000209e+00 -5.686938333333335649e-01 2.916666666666666963e+00
-1.705866750000000209e+00 -5.686938333333335649e-01 3.333333333333333481e+00
-1.705866750000000209e+00 -5.686938333333335649e-01 3.750000000000000000e+00
-1.705866750000000209e+00 -5.686938333333335649e-01 4.166666666666666963e+00
-1.705866750000000209e+00 -5.686938333333335649e-01 4.583333333333333925e+00
-1.705866750000000209e+00 -5.686938333333335649e-01 5.000000000000000000e+00
-1.705866750000000209e+00 -5.686938333333335649e-01 5.416666666666666963e+00
-1.705866750000000209e+00 -5.686938333333335649e-01 5.833333333333333925e+00
-1.705866750000000209e+00 -5.686938333333335649e-01 6.250000000000000000e+00
-1.705866750000000209e+00 -5.686938333333335649e-01 6.666666666666666963e+00
-1.705866750000000209e+00 -5.686938333333335649e-01 7.083333333333333925e+00
-1.705866750000000209e+00 -5.686938333333335649e-01 7.500000000000000000e+00
-1.705866750000000209e+00 -5.686938333333335649e-01 7.916666666666666963e+00
-1.705866750000000209e+00 -5.686938333333335649e-01 8.333333333333333925e+00
-1.705866750000000209e+00 -5.686938333333335649e-01 8.750000000000000000e+00
-1.705866750000000209e+00 -5.686938333333335649e-01 9.166666666666667851e+00
-1.705866750000000209e+00 -5.686938333333335649e-01 9.583333333333333925e+00
-1.137244500000000436e+00 -5.686938333333335649e-01 0.000000000000000000e+00
-1.137244500000000436e+00 -5.686938333333335649e-01 4.166666666666666852e-01
-1.137244500000000436e+00 -5.686938333333335649e-01 8.333333333333333703e-01
-1.137244500000000436e+00 -5.686938333333335649e-01 1.250000000000000000e+00
-1.137244500000000436e+00 -5.686938333333335649e-01 1.666666666666666741e+00
-1.137244500000000436e+00 -5.686938333333335649e-01 2.083333333333333481e+00
-1.137244500000000436e+00 -5.686938333333335649e-01 2.500000000000000000e+00
-1.137244500000000436e+00 -5.686938333333335649e-01 2.916666666666666963e+00
-1.137244500000000436e+00 -5.686938333333335649e-01 3.333333333333333481e+00
-1.137244500000000436e+00 -5.686938333333335649e-01 3.750000000000000000e+00
-1.137244500000000436e+00 -5.686938333333335649e-01 4.166666666666666963e+00
-1.137244500000000436e+00 -5.686938333333335649e-01 4.583333333333333925e+00
-1.137244500000000436e+00 -5.686938333333335649e-01 5.000000000000000000e+00
-1.137244500000000436e+00 -5.686938333333335649e-01 5.416666666666666963e+00
-1.137244500000000436e+00 -5.686938333333335649e-01 5.833333333333333925e+00
-1.137244500000000436e+00 -5.686938333333335649e-01 6.250000000000000000e+00
-1.137244500000000436e+00 -5.686938333333335649e-01 6.666666666666666963e+00
-1.137244500000000436e+00 -5.686938333333335649e-01 7.083333333333333925e+00
-1.137244500000000436e+00 -5.686938333333335649e-01 7.500000000000000000e+00
-1.137244500000000436e+00 -5.686938333333335649e-01 7.916666666666666963e+00
-1.137244500000000436e+00 -5.686938333333335649e-01 8.333333333333333925e+00
-1.137244500000000436e+00 -5.686938333333335649e-01 8.750000000000000000e+00
-1.137244500000000436e+00 -5.686938333333335649e-01 9.166666666666667851e+00
-1.137244500000000436e+00 -5.686938333333335649e-01 9.583333333333333925e+00
-5.686222499999997737e-01 -5.686938333333335649e-01 0.000000000000000000e+00
-5.686222499999997737e-01 -5.686938333333335649e-01 4.166666666666666852e-01
-5.686222499999997737e-01 -5.686938333333335649e-01 8.333333333333333703e-01
-5.686222499999997737e-01 -5.686938333333335649e-01 1.250000000000000000e+00
