1.672749999999997073e+00 8.067499999999999005e+00 3.333333333333333481e+00
1.672749999999997073e+00 8.067499999999999005e+00 3.750000000000000000e+00
1.672749999999997073e+00 8.067499999999999005e+00 4.166666666666666963e+00
1.672749999999997073e+00 8.067499999999999005e+00 4.583333333333333925e+00
1.672749999999997073e+00 8.067499999999999005e+00 5.000000000000000000e+00
1.672749999999997073e+00 8.067499999999999005e+00 5.416666666666666963e+00
1.672749999999997073e+00 8.067499999999999005e+00 5.833333333333333925e+00
1.672749999999997073e+00 8.067499999999999005e+00 6.250000000000000000e+00
1.672749999999997073e+00 8.067499999999999005e+00 6.666666666666666963e+00
1.672749999999997073e+00 8.067499999999999005e+00 7.083333333333333925e+00
1.672749999999997073e+00 8.067499999999999005e+00 7.500000000000000000e+00
1.672749999999997073e+00 8.067499999999999005e+00 7.916666666666666963e+00
1.672749999999997073e+00 8.067499999999999005e+00 8.333333333333333925e+00
1.672749999999997073e+00 8.067499999999999005e+00 8.750000000000000000e+00
1.672749999999997073e+00 8.067499999999999005e+00 9.166666666666667851e+00
1.672749999999997073e+00 8.067499999999999005e+00 9.583333333333333925e+00
1.672749999999997073e+00 8.067499999999999005e+00 1.000000000000000000e+01
3.282499999999998863e+00 8.067499999999999005e+00 0.000000000000000000e+00
3.282499999999998863e+00 8.067499999999999005e+00 4.166666666666666852e-01
3.282499999999998863e+00 8.067499999999999005e+00 8.333333333333333703e-01
3.282499999999998863e+00 8.067499999999999005e+00 1.250000000000000000e+00
3.282499999999998863e+00 8.067499999999999005e+00 1.666666666666666741e+00
3.282499999999998863e+00 8.067499999999999005e+00 2.083333333333333481e+00
3.282499999999998863e+00 8.067499999999999005e+00 2.500000000000000000e+00
3.282499999999998863e+00 8.067499999999999005e+00 2.916666666666666963e+00
3.282499999999998863e+00 8.067499999999999005e+00 3.333333333333333481e+00
3.282499999999998863e+00 8.067499999999999005e+00 3.750000000000000000e+00
3.282499999999998863e+00 8.067499999999999005e+00 4.166666666666666963e+00
3.282499999999998863e+00 8.067499999999999005e+00 4.583333333333333925e+00
3.282499999999998863e+00 8.067499999999999005e+00 5.000000000000000000e+00
3.282499999999998863e+00 8.067499999999999005e+00 5.416666666666666963e+00
3.282499999999998863e+00 8.067499999999999005e+00 5.833333333333333925e+00
3.282499999999998863e+00 8.067499999999999005e+00 6.250000000000000000e+00
3.282499999999998863e+00 8.067499999999999005e+00 6.666666666666666963e+00
3.282499999999998863e+00 8.067499999999999005e+00 7.083333333333333925e+00
3.282499999999998863e+00 8.067499999999999005e+00 7.500000000000000000e+00
3.282499999999998863e+00 8.067499999999999005e+00 7.916666666666666963e+00
3.282499999999998863e+00 8.067499999999999005e+00 8.333333333333333925e+00
3.282499999999998863e+00 8.067499999999999005e+00 8.750000000000000000e+00
3.282499999999998863e+00 8.067499999999999005e+00 9.166666666666667851e+00
3.282499999999998863e+00 8.067499999999999005e+00 9.583333333333333925e+00
4.892250000000000654e+00 8.067499999999999005e+00 0.000000000000000000e+00
4.892250000000000654e+00 8.067499999999999005e+00 4.166666666666666852e-01
4.892250000000000654e+00 8.067499999999999005e+00 8.333333333333333703e-01
4.892250000000000654e+00 8.067499999999999005e+00 1.250000000000000000e+00
4.892250000000000654e+00 8.067499999999999005e+00 1.666666666666666741e+00
4.892250000000000654e+00 8.067499999999999005e+00 2.083333333333333481e+00
4.892250000000000654e+00 8.067499999999999005e+00 2.500000000000000000e+00
4.892250000000000654e+00 8.067499999999999005e+00 2.916666666666666963e+00
4.892250000000000654e+00 8.067499999999999005e+00 3.333333333333333481e+00
4.892250000000000654e+00 8.067499999999999005e+00 3.750000000000000000e+00
4.892250000000000654e+00 8.067499999999999005e+00 4.166666666666666963e+00
4.892250000000000654e+00 8.067499999999999005e+00 4.583333333333333925e+00
4.892250000000000654e+00 8.067499999999999005e+00 5.000000000000000000e+00
4.892250000000000654e+00 8.067499999999999005e+00 5.416666666666666963e+00
4.892250000000000654e+00 8.067499999999999005e+00 5.833333333333333925e+00
4.892250000000000654e+00 8.067499999999999005e+00 6.250000000000000000e+00
4.892250000000000654e+00 8.067499999999999005e+00 6.666666666666666963e+00
4.892250000000000654e+00 8.067499999999999005e+00 7.083333333333333925e+00
4.892250000000000654e+00 8.067499999999999005e+00 7.500000000000000000e+00
4.892250000000000654e+00 8.067499999999999005e+00 7.916666666666666963e+00
4.892250000000000654e+00 8.067499999999999005e+00 8.333333333333333925e+00
4.892250000000000654e+00 8.067499999999999005e+00 8.750000000000000000e+00
4.892250000000000654e+00 8.067499999999999005e+00 9.166666666666667851e+00
4.892250000000000654e+00 8.067499999999999005e+00 9.583333333333333925e+00
6.501999999999998892e+00 8.067499999999999005e+00 4.166666666666666852e-01
6.501999999999998892e+00 8.067499999999999005e+00 8.333333333333333703e-01
6.501999999999998892e+00 8.067499999999999005e+00 1.250000000000000000e+00
6.501999999999998892e+00 8.067499999999999005e+00 1.666666666666666741e+00
6.501999999999998892e+00 8.067499999999999005e+00 2.083333333333333481e+00
6.501999999999998892e+00 8.067499999999999005e+00 2.500000000000000000e+00
6.501999999999998892e+00 8.067499999999999005e+00 2.916666666666666963e+00
6.501999999999998892e+00 8.067499999999999005e+00 3.333333333333333481e+00
6.501999999999998892e+00 8.067499999999999005e+00 3.750000000000000000e+00
6.501999999999998892e+00 8.067499999999999005e+00 4.166666666666666963e+00
6.501999999999998892e+00 8.067499999999999005e+00 4.583333333333333925e+00
6.501999999999998892e+00 8.067499999999999005e+00 5.000000000000000000e+00
6.501999999999998892e+00 8.067499999999999005e+00 5.416666666666666963e+00
6.501999999999998892e+00 8.067499999999999005e+00 5.833333333333333925e+00
6.501999999999998892e+00 8.067499999999999005e+00 6.250000000000000000e+00
6.501999999999998892e+00 8.067499999999999005e+00 6.666666666666666963e+00
6.501999999999998892e+00 8.067499999999999005e+00 7.083333333333333925e+00
6.501999999999998892e+00 8.067499999999999005e+00 7.500000000000000000e+00
6.501999999999998892e+00 8.067499999999999005e+00 7.916666666666666963e+00
6.501999999999998892e+00 8.067499999999999005e+00 8.333333333333333925e+00
6.501999999999998892e+00 8.067499999999999005e+00 8.750000000000000000e+00
6.501999999999998892e+00 8.067499999999999005e+00 9.166666666666667851e+00
6.501999999999998892e+00 8.067499999999999005e+00 9.583333333333333925e+00
8.111749999999997129e+00 8.067499999999999005e+00 0.000000000000000000e+00
8.111749999999997129e+00 8.067499999999999005e+00 4.166666666666666852e-01
8.111749999999997129e+00 8.067499999999999005e+00 8.333333333333333703e-01
8.111749999999997129e+00 8.067499999999999005e+00 1.250000000000000000e+00
8.111749999999997129e+00 8.067499999999999005e+00 1.666666666666666741e+00
8.111749999999997129e+00 8.067499999999999005e+00 2.083333333333333481e+00
8.111749999999997129e+00 8.067499999999999005e+00 2.500000000000000000e+00
8.111749999999997129e+00 8.067499999999999005e+00 2.916666666666666963e+00
8.111749999999997129e+00 8.067499999999999005e+00 3.333333333333333481e+00
8.111749999999997129e+00 8.067499999999999005e+00 3.750000000000000000e+00
8.111749999999997129e+00 8.067499999999999005e+00 4.166666666666666963e+00
8.111749999999997129e+00 8.067499999999999005e+00 4.583333333333333925e+00
8.111749999999997129e+00 8.067499999999999005e+00 5.000000000000000000e+00
8.111749999999997129e+00 8.067499999999999005e+00 5.416666666666666963e+00
8.111749999999997129e+00 8.067499999999999005e+00 5.833333333333333925e+00
8.111749999999997129e+00 8.067499999999999005e+00 6.250000000000000000e+00
8.111749999999997129e+00 8.067499999999999005e+00 6.666666666666666963e+00
8.111749999999997129e+00 8.067499999999999005e+00 7.083333333333333925e+00
8.111749999999997129e+00 8.067499999999999005e+00 7.500000000000000000e+00
8.111749999999997129e+00 8.067499999999999005e+00 7.916666666666666963e+00
8.111749999999997129e+00 8.067499999999999005e+00 8.333333333333333925e+00
8.111749999999997129e+00 8.067499999999999005e+00 8.750000000000000000e+00
8.111749999999997129e+00 8.067499999999999005e+00 9.166666666666667851e+00
8.111749999999997129e+00 8.067499999999999005e+00 9.583333333333333925e+00
9.721499999999998920e+00 8.067499999999999005e+00 0.000000000000000000e+00
9.721499999999998920e+00 8.067499999999999005e+00 4.166666666666666852e-01
9.721499999999998920e+00 8.067499999999999005e+00 8.333333333333333703e-01
9.721499999999998920e+00 8.067499999999999005e+00 1.250000000000000000e+00
9.721499999999998920e+00 8.067499999999999005e+00 1.666666666666666741e+00
9.721499999999998920e+00 8.067499999999999005e+00 2.083333333333333481e+00
9.721499999999998920e+00 8.067499999999999005e+00 2.500000000000000000e+00
9.721499999999998920e+00 8.067499999999999005e+00 2.916666666666666963e+00
9.721499999999998920e+00 8.067499999999999005e+00 3.333333333333333481e+00
9.721499999999998920e+00 8.067499999999999005e+00 3.750000000000000000e+00
9.721499999999998920e+00 8.067499999999999005e+00 4.166666666666666963e+00
9.721499999999998920e+00 8.067499999999999005e+00 4.583333333333333925e+00
9.721499999999998920e+00 8.067499999999999005e+00 5.000000000000000000e+00
9.721499999999998920e+00 8.067499999999999005e+00 5.416666666666666963e+00
9.721499999999998920e+00 8.067499999999999005e+00 5.833333333333333925e+00
9.721499999999998920e+00 8.067499999999999005e+00 6.250000000000000000e+00
9.721499999999998920e+00 8.067499999999999005e+00 6.666666666666666963e+00
9.721499999999998920e+00 8.067499999999999005e+00 7.083333333333333925e+00
9.721499999999998920e+00 8.067499999999999005e+00 7.500000000000000000e+00
9.721499999999998920e+00 8.067499999999999005e+00 7.916666666666666963e+00
9.721499999999998920e+00 8.067499999999999005e+00 8.333333333333333925e+00
9.721499999999998920e+00 8.067499999999999005e+00 8.750000000000000000e+00
9.721499999999998920e+00 8.067499999999999005e+00 9.166666666666667851e+00
9.721499999999998920e+00 8.067499999999999005e+00 9.583333333333333925e+00
1.133125000000000071e+01 8.067499999999999005e+00 0.000000000000000000e+00
1.133125000000000071e+01 8.067499999999999005e+00 4.166666666666666852e-01
1.133125000000000071e+01 8.067499999999999005e+00 8.333333333333333703e-01
1.133125000000000071e+01 8.067499999999999005e+00 1.250000000000000000e+00
1.133125000000000071e+01 8.067499999999999005e+00 1.666666666666666741e+00
1.133125000000000071e+01 8.067499999999999005e+00 2.083333333333333481e+00
1.133125000000000071e+01 8.067499999999999005e+00 2.500000000000000000e+00
1.133125000000000071e+01 8.067499999999999005e+00 2.916666666666666963e+00
1.133125000000000071e+01 8.067499999999999005e+00 3.333333333333333481e+00
1.133125000000000071e+01 8.067499999999999005e+00 3.750000000000000000e+00
1.133125000000000071e+01 8.067499999999999005e+00 4.166666666666666963e+00
1.133125000000000071e+01 8.067499999999999005e+00 4.583333333333333925e+00
1.133125000000000071e+01 8.067499999999999005e+00 5.000000000000000000e+00
1.133125000000000071e+01 8.067499999999999005e+00 5.416666666666666963e+00
1.133125000000000071e+01 8.067499999999999005e+00 5.833333333333333925e+00
1.133125000000000071e+01 8.067499999999999005e+00 6.250000000000000000e+00
1.133125000000000071e+01 8.067499999999999005e+00 6.666666666666666963e+00
1.133125000000000071e+01 8.067499999999999005e+00 7.083333333333333925e+00
1.133125000000000071e+01 8.067499999999999005e+00 7.500000000000000000e+00
1.133125000000000071e+01 8.067499999999999005e+00 7.916666666666666963e+00
1.133125000000000071e+01 8.067499999999999005e+00 8.333333333333333925e+00
1.133125000000000071e+01 8.067499999999999005e+00 8.750000000000000000e+00
1.133125000000000071e+01 8.067499999999999005e+00 9.166666666666667851e+00
1.133125000000000071e+01 8.067499999999999005e+00 9.583333333333333925e+00
1.294099999999999895e+01 8.067499999999999005e+00 0.000000000000000000e+00
1.294099999999999895e+01 8.067499999999999005e+00 4.166666666666666852e-01
1.294099999999999895e+01 8.067499999999999005e+00 8.333333333333333703e-01
1.294099999999999895e+01 8.067499999999999005e+00 1.250000000000000000e+00
1.294099999999999895e+01 8.067499999999999005e+00 1.666666666666666741e+00
1.294099999999999895e+01 8.067499999999999005e+00 2.083333333333333481e+00
1.294099999999999895e+01 8.067499999999999005e+00 2.500000000000000000e+00
1.294099999999999895e+01 8.067499999999999005e+00 2.916666666666666963e+00
1.294099999999999895e+01 8.067499999999999005e+00 3.333333333333333481e+00
1.294099999999999895e+01 8.067499999999999005e+00 3.750000000000000000e+00
1.455074999999999719e+01 8.067499999999999005e+00 0.000000000000000000e+00
1.455074999999999719e+01 8.067499999999999005e+00 4.166666666666666852e-01
1.455074999999999719e+01 8.067499999999999005e+00 8.333333333333333703e-01
1.455074999999999719e+01 8.067499999999999005e+00 1.250000000000000000e+00
1.455074999999999719e+01 8.067499999999999005e+00 1.666666666666666741e+00
1.455074999999999719e+01 8.067499999999999005e+00 2.083333333333333481e+00
1.455074999999999719e+01 8.067499999999999005e+00 2.500000000000000000e+00
1.455074999999999719e+01 8.067499999999999005e+00 2.916666666666666963e+00
1.455074999999999719e+01 8.067499999999999005e+00 3.333333333333333481e+00
1.455074999999999719e+01 8.067499999999999005e+00 3.750000000000000000e+00
-1.281500000000000128e+01 9.681000000000000938e+00 0.000000000000000000e+00
-1.281500000000000128e+01 9.681000000000000938e+00 4.166666666666666852e-01
-1.281500000000000128e+01 9.681000000000000938e+00 8.333333333333333703e-01
-1.281500000000000128e+01 9.681000000000000938e+00 1.250000000000000000e+00
-1.281500000000000128e+01 9.681000000000000938e+00 1.666666666666666741e+00
-1.281500000000000128e+01 9.681000000000000938e+00 2.083333333333333481e+00
-1.281500000000000128e+01 9.681000000000000938e+00 2.500000000000000000e+00
-1.281500000000000128e+01 9.681000000000000938e+00 2.916666666666666963e+00
-1.281500000000000128e+01 9.681000000000000938e+00 3.333333333333333481e+00
-1.281500000000000128e+01 9.681000000000000938e+00 3.750000000000000000e+00
-1.120525000000000126e+01 9.681000000000000938e+00 0.000000000000000000e+00
-1.120525000000000126e+01 9.681000000000000938e+00 4.166666666666666852e-01
-1.120525000000000126e+01 9.681000000000000938e+00 8.333333333333333703e-01
-1.120525000000000126e+01 9.681000000000000938e+00 1.250000000000000000e+00
-1.120525000000000126e+01 9.681000000000000938e+00 1.666666666666666741e+00
-1.120525000000000126e+01 9.681000000000000938e+00 2.083333333333333481e+00
-1.120525000000000126e+01 9.681000000000000938e+00 2.500000000000000000e+00
-1.120525000000000126e+01 9.681000000000000938e+00 2.916666666666666963e+00
-1.120525000000000126e+01 9.681000000000000938e+00 3.333333333333333481e+00
-1.120525000000000126e+01 9.681000000000000938e+00 3.750000000000000000e+00
-1.120525000000000126e+01 9.681000000000000938e+00 4.166666666666666963e+00
-1.120525000000000126e+01 9.681000000000000938e+00 4.583333333333333925e+00
-1.120525000000000126e+01 9.681000000000000938e+00 5.000000000000000000e+00
-1.120525000000000126e+01 9.681000000000000938e+00 5.416666666666666963e+00
-1.120525000000000126e+01 9.681000000000000938e+00 5.833333333333333925e+00
-1.120525000000000126e+01 9.681000000000000938e+00 6.250000000000000000e+00
-1.120525000000000126e+01 9.681000000000000938e+00 6.666666666666666963e+00
-1.120525000000000126e+01 9.681000000000000938e+00 7.083333333333333925e+00
-1.120525000000000126e+01 9.681000000000000938e+00 7.500000000000000000e+00
-1.120525000000000126e+01 9.681000000000000938e+00 7.916666666666666963e+00
-1.120525000000000126e+01 9.681000000000000938e+00 8.333333333333333925e+00
-1.120525000000000126e+01 9.681000000000000938e+00 8.750000000000000000e+00
-1.120525000000000126e+01 9.681000000000000938e+00 9.166666666666667851e+00
-1.120525000000000126e+01 9.681000000000000938e+00 9.583333333333333925e+00
-1.120525000000000126e+01 9.681000000000000938e+00 1.000000000000000000e+01
-9.595500000000001251e+00 9.681000000000000938e+00 0.000000000000000000e+00
-9.595500000000001251e+00 9.681000000000000938e+00 4.166666666666666852e-01
-9.595500000000001251e+00 9.681000000000000938e+00 8.333333333333333703e-01
-9.595500000000001251e+00 9.681000000000000938e+00 1.250000000000000000e+00
-9.595500000000001251e+00 9.681000000000000938e+00 1.666666666666666741e+00
-9.595500000000001251e+00 9.681000000000000938e+00 2.083333333333333481e+00
-9.595500000000001251e+00 9.681000000000000938e+00 2.500000000000000000e+00
-9.595500000000001251e+00 9.681000000000000938e+00 2.916666666666666963e+00
-9.595500000000001251e+00 9.681000000000000938e+00 3.333333333333333481e+00
-9.595500000000001251e+00 9.681000000000000938e+00 3.750000000000000000e+00
-9.595500000000001251e+00 9.681000000000000938e+00 4.166666666666666963e+00
-9.595500000000001251e+00 9.681000000000000938e+00 4.583333333333333925e+00
-9.595500000000001251e+00 9.681000000000000938e+00 5.000000000000000000e+00
-9.595500000000001251e+00 9.681000000000000938e+00 5.416666666666666963e+00
-9.595500000000001251e+00 9.681000000000000938e+00 5.833333333333333925e+00
-9.595500000000001251e+00 9.681000000000000938e+00 6.250000000000000000e+00
-9.595500000000001251e+00 9.681000000000000938e+00 6.666666666666666963e+00
-9.595500000000001251e+00 9.681000000000000938e+00 7.083333333333333925e+00
-9.595500000000001251e+00 9.681000000000000938e+00 7.500000000000000000e+00
-9.595500000000001251e+00 9.681000000000000938e+00 7.916666666666666963e+00
-9.595500000000001251e+00 9.681000000000000938e+00 8.333333333333333925e+00
-9.595500000000001251e+00 9.681000000000000938e+00 8.750000000000000000e+00
-9.595500000000001251e+00 9.681000000000000938e+00 9.166666666666667851e+00
-9.595500000000001251e+00 9.681000000000000938e+00 9.583333333333333925e+00
-7.985750000000001236e+00 9.681000000000000938e+00 0.000000000000000000e+00
-7.985750000000001236e+00 9.681000000000000938e+00 4.166666666666666852e-01
-7.985750000000001236e+00 9.681000000000000938e+00 8.333333333333333703e-01
-7.985750000000001236e+00 9.681000000000000938e+00 1.250000000000000000e+00
-7.985750000000001236e+00 9.681000000000000938e+00 1.666666666666666741e+00
-7.985750000000001236e+00 9.681000000000000938e+00 2.083333333333333481e+00
-7.985750000000001236e+00 9.681000000000000938e+00 2.500000000000000000e+00
-7.985750000000001236e+00 9.681000000000000938e+00 2.916666666666666963e+00
-7.985750000000001236e+00 9.681000000000000938e+00 3.333333333333333481e+00
-7.985750000000001236e+00 9.681000000000000938e+00 3.750000000000000000e+00
-7.985750000000001236e+00 9.681000000000000938e+00 4.166666666666666963e+00
-7.985750000000001236e+00 9.681000000000000938e+00 4.583333333333333925e+00
-7.985750000000001236e+00 9.681000000000000938e+00 5.000000000000000000e+00
-7.985750000000001236e+00 9.681000000000000938e+00 5.416666666666666963e+00
-7.985750000000001236e+00 9.681000000000000938e+00 5.833333333333333925e+00
-7.985750000000001236e+00 9.681000000000000938e+00 6.250000000000000000e+00
-7.985750000000001236e+00 9.681000000000000938e+00 6.666666666666666963e+00
-7.985750000000001236e+00 9.681000000000000938e+00 7.083333333333333925e+00
-7.985750000000001236e+00 9.681000000000000938e+00 7.500000000000000000e+00
-7.985750000000001236e+00 9.681000000000000938e+00 7.916666666666666963e+00
-7.985750000000001236e+00 9.681000000000000938e+00 8.333333333333333925e+00
-7.985750000000001236e+00 9.681000000000000938e+00 8.750000000000000000e+00
-7.985750000000001236e+00 9.681000000000000938e+00 9.166666666666667851e+00
-7.985750000000001236e+00 9.681000000000000938e+00 9.583333333333333925e+00
-7.985750000000001236e+00 9.681000000000000938e+00 1.000000000000000000e+01
-6.376000000000001222e+00 9.681000000000000938e+00 0.000000000000000000e+00
-6.376000000000001222e+00 9.681000000000000938e+00 4.166666666666666852e-01
-6.376000000000001222e+00 9.681000000000000938e+00 8.333333333333333703e-01
-6.376000000000001222e+00 9.681000000000000938e+00 1.250000000000000000e+00
-6.376000000000001222e+00 9.681000000000000938e+00 1.666666666666666741e+00
-6.376000000000001222e+00 9.681000000000000938e+00 2.083333333333333481e+00
-6.376000000000001222e+00 9.681000000000000938e+00 2.500000000000000000e+00
-6.376000000000001222e+00 9.681000000000000938e+00 2.916666666666666963e+00
-6.376000000000001222e+00 9.681000000000000938e+00 3.333333333333333481e+00
-6.376000000000001222e+00 9.681000000000000938e+00 3.750000000000000000e+00
-6.376000000000001222e+00 9.681000000000000938e+00 4.166666666666666963e+00
-6.376000000000001222e+00 9.681000000000000938e+00 4.583333333333333925e+00
-6.376000000000001222e+00 9.681000000000000938e+00 5.000000000000000000e+00
-6.376000000000001222e+00 9.681000000000000938e+00 5.416666666666666963e+00
-6.376000000000001222e+00 9.681000000000000938e+00 5.833333333333333925e+00
-6.376000000000001222e+00 9.681000000000000938e+00 6.250000000000000000e+00
-6.376000000000001222e+00 9.681000000000000938e+00 6.666666666666666963e+00
-6.376000000000001222e+00 9.681000000000000938e+00 7.083333333333333925e+00
-6.376000000000001222e+00 9.681000000000000938e+00 7.500000000000000000e+00
-6.376000000000001222e+00 9.681000000000000938e+00 7.916666666666666963e+00
-6.376000000000001222e+00 9.681000000000000938e+00 8.333333333333333925e+00
-6.376000000000001222e+00 9.681000000000000938e+00 8.750000000000000000e+00
-6.376000000000001222e+00 9.681000000000000938e+00 9.166666666666667851e+00
-6.376000000000001222e+00 9.681000000000000938e+00 9.583333333333333925e+00
-6.376000000000001222e+00 9.681000000000000938e+00 1.000000000000000000e+01
-4.766250000000001208e+00 9.681000000000000938e+00 0.000000000000000000e+00
-4.766250000000001208e+00 9.681000000000000938e+00 4.166666666666666852e-01
-4.766250000000001208e+00 9.681000000000000938e+00 8.333333333333333703e-01
-4.766250000000001208e+00 9.681000000000000938e+00 1.250000000000000000e+00
-4.766250000000001208e+00 9.681000000000000938e+00 1.666666666666666741e+00
-4.766250000000001208e+00 9.681000000000000938e+00 2.083333333333333481e+00
-4.766250000000001208e+00 9.681000000000000938e+00 2.500000000000000000e+00
-4.766250000000001208e+00 9.681000000000000938e+00 2.916666666666666963e+00
-4.766250000000001208e+00 9.681000000000000938e+00 3.333333333333333481e+00
-4.766250000000001208e+00 9.681000000000000938e+00 3.750000000000000000e+00
-4.766250000000001208e+00 9.681000000000000938e+00 4.166666666666666963e+00
-4.766250000000001208e+00 9.681000000000000938e+00 4.583333333333333925e+00
-4.766250000000001208e+00 9.681000000000000938e+00 5.000000000000000000e+00
-4.766250000000001208e+00 9.681000000000000938e+00 5.416666666666666963e+00
-4.766250000000001208e+00 9.681000000000000938e+00 5.833333333333333925e+00
-4.766250000000001208e+00 9.681000000000000938e+00 6.250000000000000000e+00
-4.766250000000001208e+00 9.681000000000000938e+00 6.666666666666666963e+00
-4.766250000000001208e+00 9.681000000000000938e+00 7.083333333333333925e+00
-4.766250000000001208e+00 9.681000000000000938e+00 7.500000000000000000e+00
-4.766250000000001208e+00 9.681000000000000938e+00 7.916666666666666963e+00
-4.766250000000001208e+00 9.681000000000000938e+00 8.333333333333333925e+00
-4.766250000000001208e+00 9.681000000000000938e+00 8.750000000000000000e+00
-4.766250000000001208e+00 9.681000000000000938e+00 9.166666666666667851e+00
-4.766250000000001208e+00 9.681000000000000938e+00 9.583333333333333925e+00
-4.766250000000001208e+00 9.681000000000000938e+00 1.000000000000000000e+01
-3.156500000000001194e+00 9.681000000000000938e+00 0.000000000000000000e+00
-3.156500000000001194e+00 9.681000000000000938e+00 4.166666666666666852e-01
-3.156500000000001194e+00 9.681000000000000938e+00 8.333333333333333703e-01
-3.156500000000001194e+00 9.681000000000000938e+00 1.250000000000000000e+00
-3.156500000000001194e+00 9.681000000000000938e+00 1.666666666666666741e+00
-3.156500000000001194e+00 9.681000000000000938e+00 2.083333333333333481e+00
-3.156500000000001194e+00 9.681000000000000938e+00 2.500000000000000000e+00
-3.156500000000001194e+00 9.681000000000000938e+00 2.916666666666666963e+00
-3.156500000000001194e+00 9.681000000000000938e+00 3.333333333333333481e+00
-3.156500000000001194e+00 9.681000000000000938e+00 3.750000000000000000e+00
-3.156500000000001194e+00 9.681000000000000938e+00 4.166666666666666963e+00
-3.156500000000001194e+00 9.681000000000000938e+00 4.583333333333333925e+00
-3.156500000000001194e+00 9.681000000000000938e+00 5.000000000000000000e+00
-3.156500000000001194e+00 9.681000000000000938e+00 5.416666666666666963e+00
-3.156500000000001194e+00 9.681000000000000938e+00 5.833333333333333925e+00
-3.156500000000001194e+00 9.681000000000000938e+00 6.250000000000000000e+00
-3.156500000000001194e+00 9.681000000000000938e+00 6.666666666666666963e+00
-3.156500000000001194e+00 9.681000000000000938e+00 7.083333333333333925e+00
-3.156500000000001194e+00 9.681000000000000938e+00 7.500000000000000000e+00
-3.156500000000001194e+00 9.681000000000000938e+00 7.916666666666666963e+00
-3.156500000000001194e+00 9.681000000000000938e+00 8.333333333333333925e+00
-3.156500000000001194e+00 9.681000000000000938e+00 8.750000000000000000e+00
-3.156500000000001194e+00 9.681000000000000938e+00 9.166666666666667851e+00
-3.156500000000001194e+00 9.681000000000000938e+00 9.583333333333333925e+00
-3.156500000000001194e+00 9.681000000000000938e+00 1.000000000000000000e+01
1.672749999999997073e+00 9.681000000000000938e+00 4.166666666666666852e-01
1.672749999999997073e+00 9.681000000000000938e+00 8.333333333333333703e-01
1.672749999999997073e+00 9.681000000000000938e+00 1.250000000000000000e+00
1.672749999999997073e+00 9.681000000000000938e+00 1.666666666666666741e+00
1.672749999999997073e+00 9.681000000000000938e+00 2.083333333333333481e+00
1.672749999999997073e+00 9.681000000000000938e+00 2.500000000000000000e+00
1.672749999999997073e+00 9.681000000000000938e+00 2.916666666666666963e+00
1.672749999999997073e+00 9.681000000000000938e+00 3.333333333333333481e+00
1.672749999999997073e+00 9.681000000000000938e+00 3.750000000000000000e+00
1.672749999999997073e+00 9.681000000000000938e+00 4.166666666666666963e+00
1.672749999999997073e+00 9.681000000000000938e+00 4.583333333333333925e+00
1.672749999999997073e+00 9.681000000000000938e+00 5.000000000000000000e+00
1.672749999999997073e+00 9.681000000000000938e+00 5.416666666666666963e+00
1.672749999999997073e+00 9.681000000000000938e+00 5.833333333333333925e+00
1.672749999999997073e+00 9.681000000000000938e+00 6.250000000000000000e+00
1.672749999999997073e+00 9.681000000000000938e+00 6.666666666666666963e+00
1.672749999999997073e+00 9.681000000000000938e+00 7.083333333333333925e+00
1.672749999999997073e+00 9.681000000000000938e+00 7.500000000000000000e+00
1.672749999999997073e+00 9.681000000000000938e+00 7.916666666666666963e+00
1.672749999999997073e+00 9.681000000000000938e+00 8.333333333333333925e+00
1.672749999999997073e+00 9.681000000000000938e+00 8.750000000000000000e+00
1.672749999999997073e+00 9.681000000000000938e+00 9.166666666666667851e+00
1.672749999999997073e+00 9.681000000000000938e+00 9.583333333333333925e+00
3.282499999999998863e+00 9.681000000000000938e+00 0.000000000000000000e+00
3.282499999999998863e+00 9.681000000000000938e+00 4.166666666666666852e-01
3.282499999999998863e+00 9.681000000000000938e+00 8.333333333333333703e-01
3.282499999999998863e+00 9.681000000000000938e+00 1.250000000000000000e+00
3.282499999999998863e+00 9.681000000000000938e+00 1.666666666666666741e+00
3.282499999999998863e+00 9.681000000000000938e+00 2.083333333333333481e+00
3.282499999999998863e+00 9.681000000000000938e+00 2.500000000000000000e+00
3.282499999999998863e+00 9.681000000000000938e+00 2.916666666666666963e+00
3.282499999999998863e+00 9.681000000000000938e+00 3.333333333333333481e+00
3.282499999999998863e+00 9.681000000000000938e+00 3.750000000000000000e+00
3.282499999999998863e+00 9.681000000000000938e+00 4.166666666666666963e+00
3.282499999999998863e+00 9.681000000000000938e+00 4.583333333333333925e+00
3.282499999999998863e+00 9.681000000000000938e+00 5.000000000000000000e+00
3.282499999999998863e+00 9.681000000000000938e+00 5.416666666666666963e+00
3.282499999999998863e+00 9.681000000000000938e+00 5.833333333333333925e+00
3.282499999999998863e+00 9.681000000000000938e+00 6.250000000000000000e+00
3.282499999999998863e+00 9.681000000000000938e+00 6.666666666666666963e+00
3.282499999999998863e+00 9.681000000000000938e+00 7.083333333333333925e+00
3.282499999999998863e+00 9.681000000000000938e+00 7.500000000000000000e+00
3.282499999999998863e+00 9.681000000000000938e+00 7.916666666666666963e+00
3.282499999999998863e+00 9.681000000000000938e+00 8.333333333333333925e+00
3.282499999999998863e+00 9.681000000000000938e+00 8.750000000000000000e+00
3.282499999999998863e+00 9.681000000000000938e+00 9.166666666666667851e+00
3.282499999999998863e+00 9.681000000000000938e+00 9.583333333333333925e+00
3.282499999999998863e+00 9.681000000000000938e+00 1.000000000000000000e+01
4.892250000000000654e+00 9.681000000000000938e+00 0.000000000000000000e+00
4.892250000000000654e+00 9.681000000000000938e+00 4.166666666666666852e-01
4.892250000000000654e+00 9.681000000000000938e+00 8.333333333333333703e-01
4.892250000000000654e+00 9.681000000000000938e+00 1.250000000000000000e+00
4.892250000000000654e+00 9.681000000000000938e+00 1.666666666666666741e+00
4.892250000000000654e+00 9.681000000000000938e+00 2.083333333333333481e+00
4.892250000000000654e+00 9.681000000000000938e+00 2.500000000000000000e+00
4.892250000000000654e+00 9.681000000000000938e+00 2.916666666666666963e+00
4.892250000000000654e+00 9.681000000000000938e+00 3.333333333333333481e+00
4.892250000000000654e+00 9.681000000000000938e+00 3.750000000000000000e+00
4.892250000000000654e+00 9.681000000000000938e+00 4.166666666666666963e+00
4.892250000000000654e+00 9.681000000000000938e+00 4.583333333333333925e+00
4.892250000000000654e+00 9.681000000000000938e+00 5.000000000000000000e+00
4.892250000000000654e+00 9.681000000000000938e+00 5.416666666666666963e+00
4.892250000000000654e+00 9.681000000000000938e+00 5.833333333333333925e+00
4.892250000000000654e+00 9.681000000000000938e+00 6.250000000000000000e+00
4.892250000000000654e+00 9.681000000000000938e+00 6.666666666666666963e+00
4.892250000000000654e+00 9.681000000000000938e+00 7.083333333333333925e+00
4.892250000000000654e+00 9.681000000000000938e+00 7.500000000000000000e+00
4.892250000000000654e+00 9.681000000000000938e+00 7.916666666666666963e+00
4.892250000000000654e+00 9.681000000000000938e+00 8.333333333333333925e+00
4.892250000000000654e+00 9.681000000000000938e+00 8.750000000000000000e+00
4.892250000000000654e+00 9.681000000000000938e+00 9.166666666666667851e+00
4.892250000000000654e+00 9.681000000000000938e+00 9.583333333333333925e+00
4.892250000000000654e+00 9.681000000000000938e+00 1.000000000000000000e+01
6.501999999999998892e+00 9.681000000000000938e+00 0.000000000000000000e+00
6.501999999999998892e+00 9.681000000000000938e+00 4.166666666666666852e-01
6.501999999999998892e+00 9.681000000000000938e+00 8.333333333333333703e-01
6.501999999999998892e+00 9.681000000000000938e+00 1.250000000000000000e+00
6.501999999999998892e+00 9.681000000000000938e+00 1.666666666666666741e+00
6.501999999999998892e+00 9.681000000000000938e+00 2.083333333333333481e+00
6.501999999999998892e+00 9.681000000000000938e+00 2.500000000000000000e+00
6.501999999999998892e+00 9.681000000000000938e+00 2.916666666666666963e+00
6.501999999999998892e+00 9.681000000000000938e+00 3.333333333333333481e+00
6.501999999999998892e+00 9.681000000000000938e+00 3.750000000000000000e+00
6.501999999999998892e+00 9.681000000000000938e+00 4.166666666666666963e+00
6.501999999999998892e+00 9.681000000000000938e+00 4.583333333333333925e+00
6.501999999999998892e+00 9.681000000000000938e+00 5.000000000000000000e+00
6.501999999999998892e+00 9.681000000000000938e+00 5.416666666666666963e+00
6.501999999999998892e+00 9.681000000000000938e+00 5.833333333333333925e+00
6.501999999999998892e+00 9.681000000000000938e+00 6.250000000000000000e+00
6.501999999999998892e+00 9.681000000000000938e+00 6.666666666666666963e+00
6.501999999999998892e+00 9.681000000000000938e+00 7.083333333333333925e+00
6.501999999999998892e+00 9.681000000000000938e+00 7.500000000000000000e+00
6.501999999999998892e+00 9.681000000000000938e+00 7.916666666666666963e+00
6.501999999999998892e+00 9.681000000000000938e+00 8.333333333333333925e+00
6.501999999999998892e+00 9.681000000000000938e+00 8.750000000000000000e+00
6.501999999999998892e+00 9.681000000000000938e+00 9.166666666666667851e+00
6.501999999999998892e+00 9.681000000000000938e+00 9.583333333333333925e+00
8.111749999999997129e+00 9.681000000000000938e+00 0.000000000000000000e+00
8.111749999999997129e+00 9.681000000000000938e+00 4.166666666666666852e-01
8.111749999999997129e+00 9.681000000000000938e+00 8.333333333333333703e-01
8.111749999999997129e+00 9.681000000000000938e+00 1.250000000000000000e+00
8.111749999999997129e+00 9.681000000000000938e+00 1.666666666666666741e+00
8.111749999999997129e+00 9.681000000000000938e+00 2.083333333333333481e+00
8.111749999999997129e+00 9.681000000000000938e+00 2.500000000000000000e+00
8.111749999999997129e+00 9.681000000000000938e+00 2.916666666666666963e+00
8.111749999999997129e+00 9.681000000000000938e+00 3.333333333333333481e+00
8.111749999999997129e+00 9.681000000000000938e+00 3.750000000000000000e+00
8.111749999999997129e+00 9.681000000000000938e+00 4.166666666666666963e+00
8.111749999999997129e+00 9.681000000000000938e+00 4.583333333333333925e+00
8.111749999999997129e+00 9.681000000000000938e+00 5.000000000000000000e+00
8.111749999999997129e+00 9.681000000000000938e+00 5.416666666666666963e+00
8.111749999999997129e+00 9.681000000000000938e+00 5.833333333333333925e+00
8.111749999999997129e+00 9.681000000000000938e+00 6.250000000000000000e+00
8.111749999999997129e+00 9.681000000000000938e+00 6.666666666666666963e+00
8.111749999999997129e+00 9.681000000000000938e+00 7.083333333333333925e+00
8.111749999999997129e+00 9.681000000000000938e+00 7.500000000000000000e+00
8.111749999999997129e+00 9.681000000000000938e+00 7.916666666666666963e+00
8.111749999999997129e+00 9.681000000000000938e+00 8.333333333333333925e+00
8.111749999999997129e+00 9.681000000000000938e+00 8.750000000000000000e+00
8.111749999999997129e+00 9.681000000000000938e+00 9.166666666666667851e+00
8.111749999999997129e+00 9.681000000000000938e+00 9.583333333333333925e+00
9.721499999999998920e+00 9.681000000000000938e+00 4.166666666666666852e-01
9.721499999999998920e+00 9.681000000000000938e+00 8.333333333333333703e-01
9.721499999999998920e+00 9.681000000000000938e+00 1.250000000000000000e+00
9.721499999999998920e+00 9.681000000000000938e+00 1.666666666666666741e+00
9.721499999999998920e+00 9.681000000000000938e+00 2.083333333333333481e+00
9.721499999999998920e+00 9.681000000000000938e+00 2.500000000000000000e+00
9.721499999999998920e+00 9.681000000000000938e+00 2.916666666666666963e+00
9.721499999999998920e+00 9.681000000000000938e+00 3.333333333333333481e+00
9.721499999999998920e+00 9.681000000000000938e+00 3.750000000000000000e+00
9.721499999999998920e+00 9.681000000000000938e+00 4.166666666666666963e+00
9.721499999999998920e+00 9.681000000000000938e+00 4.583333333333333925e+00
9.721499999999998920e+00 9.681000000000000938e+00 5.000000000000000000e+00
9.721499999999998920e+00 9.681000000000000938e+00 5.416666666666666963e+00
9.721499999999998920e+00 9.681000000000000938e+00 5.833333333333333925e+00
9.721499999999998920e+00 9.681000000000000938e+00 6.250000000000000000e+00
9.721499999999998920e+00 9.681000000000000938e+00 6.666666666666666963e+00
9.721499999999998920e+00 9.681000000000000938e+00 7.083333333333333925e+00
9.721499999999998920e+00 9.681000000000000938e+00 7.500000000000000000e+00
9.721499999999998920e+00 9.681000000000000938e+00 7.916666666666666963e+00
9.721499999999998920e+00 9.681000000000000938e+00 8.333333333333333925e+00
9.721499999999998920e+00 9.681000000000000938e+00 8.750000000000000000e+00
9.721499999999998920e+00 9.681000000000000938e+00 9.166666666666667851e+00
9.721499999999998920e+00 9.681000000000000938e+00 9.583333333333333925e+00
1.133125000000000071e+01 9.681000000000000938e+00 0.000000000000000000e+00
1.133125000000000071e+01 9.681000000000000938e+00 4.166666666666666852e-01
1.133125000000000071e+01 9.681000000000000938e+00 8.333333333333333703e-01
1.133125000000000071e+01 9.681000000000000938e+00 1.250000000000000000e+00
1.133125000000000071e+01 9.681000000000000938e+00 1.666666666666666741e+00
1.133125000000000071e+01 9.681000000000000938e+00 2.083333333333333481e+00
1.133125000000000071e+01 9.681000000000000938e+00 2.500000000000000000e+00
1.133125000000000071e+01 9.681000000000000938e+00 2.916666666666666963e+00
1.133125000000000071e+01 9.681000000000000938e+00 3.333333333333333481e+00
1.133125000000000071e+01 9.681000000000000938e+00 3.750000000000000000e+00
1.133125000000000071e+01 9.681000000000000938e+00 4.166666666666666963e+00
1.133125000000000071e+01 9.681000000000000938e+00 4.583333333333333925e+00
1.133125000000000071e+01 9.681000000000000938e+00 5.000000000000000000e+00
1.133125000000000071e+01 9.681000000000000938e+00 5.416666666666666963e+00
1.133125000000000071e+01 9.681000000000000938e+00 5.833333333333333925e+00
1.133125000000000071e+01 9.681000000000000938e+00 6.250000000000000000e+00
1.133125000000000071e+01 9.681000000000000938e+00 6.666666666666666963e+00
1.133125000000000071e+01 9.681000000000000938e+00 7.083333333333333925e+00
1.133125000000000071e+01 9.681000000000000938e+00 7.500000000000000000e+00
1.133125000000000071e+01 9.681000000000000938e+00 7.916666666666666963e+00
1.133125000000000071e+01 9.681000000000000938e+00 8.333333333333333925e+00
1.133125000000000071e+01 9.681000000000000938e+00 8.750000000000000000e+00
1.133125000000000071e+01 9.681000000000000938e+00 9.166666666666667851e+00
1.133125000000000071e+01 9.681000000000000938e+00 9.583333333333333925e+00
1.294099999999999895e+01 9.681000000000000938e+00 4.166666666666666852e-01
1.294099999999999895e+01 9.681000000000000938e+00 8.333333333333333703e-01
1.294099999999999895e+01 9.681000000000000938e+00 1.250000000000000000e+00
1.294099999999999895e+01 9.681000000000000938e+00 1.666666666666666741e+00
1.294099999999999895e+01 9.681000000000000938e+00 2.083333333333333481e+00
1.294099999999999895e+01 9.681000000000000938e+00 2.500000000000000000e+00
1.294099999999999895e+01 9.681000000000000938e+00 2.916666666666666963e+00
1.294099999999999895e+01 9.681000000000000938e+00 3.333333333333333481e+00
1.294099999999999895e+01 9.681000000000000938e+00 3.750000000000000000e+00
1.455074999999999719e+01 9.681000000000000938e+00 0.000000000000000000e+00
1.455074999999999719e+01 9.681000000000000938e+00 4.166666666666666852e-01
1.455074999999999719e+01 9.681000000000000938e+00 8.333333333333333703e-01
1.455074999999999719e+01 9.681000000000000938e+00 1.250000000000000000e+00
1.455074999999999719e+01 9.681000000000000938e+00 1.666666666666666741e+00
1.455074999999999719e+01 9.681000000000000938e+00 2.083333333333333481e+00
1.455074999999999719e+01 9.681000000000000938e+00 2.500000000000000000e+00
1.455074999999999719e+01 9.681000000000000938e+00 2.916666666666666963e+00
1.455074999999999719e+01 9.681000000000000938e+00 3.333333333333333481e+00
1.455074999999999719e+01 9.681000000000000938e+00 3.750000000000000000e+00
1.616050000000000253e+01 9.681000000000000938e+00 0.000000000000000000e+00
1.616050000000000253e+01 9.681000000000000938e+00 4.166666666666666852e-01
1.616050000000000253e+01 9.681000000000000938e+00 8.333333333333333703e-01
1.616050000000000253e+01 9.681000000000000938e+00 1.250000000000000000e+00
1.616050000000000253e+01 9.681000000000000938e+00 1.666666666666666741e+00
1.616050000000000253e+01 9.681000000000000938e+00 2.083333333333333481e+00
1.616050000000000253e+01 9.681000000000000938e+00 2.500000000000000000e+00
1.616050000000000253e+01 9.681000000000000938e+00 2.916666666666666963e+00
1.616050000000000253e+01 9.681000000000000938e+00 3.333333333333333481e+00
1.616050000000000253e+01 9.681000000000000938e+00 3.750000000000000000e+00
-1.442475000000000129e+01 1.129449999999999932e+01 4.166666666666666852e-01
-1.442475000000000129e+01 1.129449999999999932e+01 8.333333333333333703e-01
-1.442475000000000129e+01 1.129449999999999932e+01 1.250000000000000000e+00
-1.442475000000000129e+01 1.129449999999999932e+01 1.666666666666666741e+00
-1.442475000000000129e+01 1.129449999999999932e+01 2.083333333333333481e+00
-1.442475000000000129e+01 1.129449999999999932e+01 2.500000000000000000e+00
-1.442475000000000129e+01 1.129449999999999932e+01 2.916666666666666963e+00
-1.442475000000000129e+01 1.129449999999999932e+01 3.333333333333333481e+00
-1.442475000000000129e+01 1.129449999999999932e+01 3.750000000000000000e+00
-1.281500000000000128e+01 1.129449999999999932e+01 4.166666666666666852e-01
-1.281500000000000128e+01 1.129449999999999932e+01 8.333333333333333703e-01
-1.281500000000000128e+01 1.129449999999999932e+01 1.250000000000000000e+00
-1.281500000000000128e+01 1.129449999999999932e+01 1.666666666666666741e+00
-1.281500000000000128e+01 1.129449999999999932e+01 2.083333333333333481e+00
-1.281500000000000128e+01 1.129449999999999932e+01 2.500000000000000000e+00
-1.281500000000000128e+01 1.129449999999999932e+01 2.916666666666666963e+00
-1.281500000000000128e+01 1.129449999999999932e+01 3.333333333333333481e+00
-1.281500000000000128e+01 1.129449999999999932e+01 3.750000000000000000e+00
-1.120525000000000126e+01 1.129449999999999932e+01 0.000000000000000000e+00
-1.120525000000000126e+01 1.129449999999999932e+01 4.166666666666666852e-01
-1.120525000000000126e+01 1.129449999999999932e+01 8.333333333333333703e-01
-1.120525000000000126e+01 1.129449999999999932e+01 1.250000000000000000e+00
-1.120525000000000126e+01 1.129449999999999932e+01 1.666666666666666741e+00
-1.120525000000000126e+01 1.129449999999999932e+01 2.083333333333333481e+00
-1.120525000000000126e+01 1.129449999999999932e+01 2.500000000000000000e+00
-1.120525000000000126e+01 1.129449999999999932e+01 2.916666666666666963e+00
-1.120525000000000126e+01 1.129449999999999932e+01 3.333333333333333481e+00
-1.120525000000000126e+01 1.129449999999999932e+01 3.750000000000000000e+00
-9.595500000000001251e+00 1.129449999999999932e+01 4.166666666666666852e-01
-9.595500000000001251e+00 1.129449999999999932e+01 8.333333333333333703e-01
-9.595500000000001251e+00 1.129449999999999932e+01 1.250000000000000000e+00
-9.595500000000001251e+00 1.129449999999999932e+01 1.666666666666666741e+00
-9.595500000000001251e+00 1.129449999999999932e+01 2.083333333333333481e+00
-9.595500000000001251e+00 1.129449999999999932e+01 2.500000000000000000e+00
-9.595500000000001251e+00 1.129449999999999932e+01 2.916666666666666963e+00
-9.595500000000001251e+00 1.129449999999999932e+01 3.333333333333333481e+00
-9.595500000000001251e+00 1.129449999999999932e+01 3.750000000000000000e+00
-9.595500000000001251e+00 1.129449999999999932e+01 4.166666666666666963e+00
-9.595500000000001251e+00 1.129449999999999932e+01 4.583333333333333925e+00
-9.595500000000001251e+00 1.129449999999999932e+01 5.000000000000000000e+00
-9.595500000000001251e+00 1.129449999999999932e+01 5.416666666666666963e+00
-9.595500000000001251e+00 1.129449999999999932e+01 5.833333333333333925e+00
-9.595500000000001251e+00 1.129449999999999932e+01 6.250000000000000000e+00
-9.595500000000001251e+00 1.129449999999999932e+01 6.666666666666666963e+00
-9.595500000000001251e+00 1.129449999999999932e+01 7.083333333333333925e+00
-9.595500000000001251e+00 1.129449999999999932e+01 7.500000000000000000e+00
-9.595500000000001251e+00 1.129449999999999932e+01 7.916666666666666963e+00
-9.595500000000001251e+00 1.129449999999999932e+01 8.333333333333333925e+00
-9.595500000000001251e+00 1.129449999999999932e+01 8.750000000000000000e+00
-9.595500000000001251e+00 1.129449999999999932e+01 9.166666666666667851e+00
-9.595500000000001251e+00 1.129449999999999932e+01 9.583333333333333925e+00
-9.595500000000001251e+00 1.129449999999999932e+01 1.000000000000000000e+01
-7.985750000000001236e+00 1.129449999999999932e+01 0.000000000000000000e+00
-7.985750000000001236e+00 1.129449999999999932e+01 4.166666666666666852e-01
-7.985750000000001236e+00 1.129449999999999932e+01 8.333333333333333703e-01
-7.985750000000001236e+00 1.129449999999999932e+01 1.250000000000000000e+00
-7.985750000000001236e+00 1.129449999999999932e+01 1.666666666666666741e+00
-7.985750000000001236e+00 1.129449999999999932e+01 2.083333333333333481e+00
-7.985750000000001236e+00 1.129449999999999932e+01 2.500000000000000000e+00
-7.985750000000001236e+00 1.129449999999999932e+01 2.916666666666666963e+00
-7.985750000000001236e+00 1.129449999999999932e+01 3.333333333333333481e+00
-7.985750000000001236e+00 1.129449999999999932e+01 3.750000000000000000e+00
-7.985750000000001236e+00 1.129449999999999932e+01 4.166666666666666963e+00
-7.985750000000001236e+00 1.129449999999999932e+01 4.583333333333333925e+00
-7.985750000000001236e+00 1.129449999999999932e+01 5.000000000000000000e+00
-7.985750000000001236e+00 1.129449999999999932e+01 5.416666666666666963e+00
-7.985750000000001236e+00 1.129449999999999932e+01 5.833333333333333925e+00
-7.985750000000001236e+00 1.129449999999999932e+01 6.250000000000000000e+00
-7.985750000000001236e+00 1.129449999999999932e+01 6.666666666666666963e+00
-7.985750000000001236e+00 1.129449999999999932e+01 7.083333333333333925e+00
-7.985750000000001236e+00 1.129449999999999932e+01 7.500000000000000000e+00
-7.985750000000001236e+00 1.129449999999999932e+01 7.916666666666666963e+00
-7.985750000000001236e+00 1.129449999999999932e+01 8.333333333333333925e+00
-7.985750000000001236e+00 1.129449999999999932e+01 8.750000000000000000e+00
-7.985750000000001236e+00 1.129449999999999932e+01 9.166666666666667851e+00
-7.985750000000001236e+00 1.129449999999999932e+01 9.583333333333333925e+00
-7.985750000000001236e+00 1.129449999999999932e+01 1.000000000000000000e+01
-6.376000000000001222e+00 1.129449999999999932e+01 0.000000000000000000e+00
-6.376000000000001222e+00 1.129449999999999932e+01 4.166666666666666852e-01
-6.376000000000001222e+00 1.129449999999999932e+01 8.333333333333333703e-01
-6.376000000000001222e+00 1.129449999999999932e+01 1.250000000000000000e+00
-6.376000000000001222e+00 1.129449999999999932e+01 1.666666666666666741e+00
-6.376000000000001222e+00 1.129449999999999932e+01 2.083333333333333481e+00
-6.376000000000001222e+00 1.129449999999999932e+01 2.500000000000000000e+00
-6.376000000000001222e+00 1.129449999999999932e+01 2.916666666666666963e+00
-6.376000000000001222e+00 1.129449999999999932e+01 3.333333333333333481e+00
-6.376000000000001222e+00 1.129449999999999932e+01 3.750000000000000000e+00
-6.376000000000001222e+00 1.129449999999999932e+01 4.166666666666666963e+00
-6.376000000000001222e+00 1.129449999999999932e+01 4.583333333333333925e+00
-6.376000000000001222e+00 1.129449999999999932e+01 5.000000000000000000e+00
-6.376000000000001222e+00 1.129449999999999932e+01 5.416666666666666963e+00
-6.376000000000001222e+00 1.129449999999999932e+01 5.833333333333333925e+00
-6.376000000000001222e+00 1.129449999999999932e+01 6.250000000000000000e+00
-6.376000000000001222e+00 1.129449999999999932e+01 6.666666666666666963e+00
-6.376000000000001222e+00 1.129449999999999932e+01 7.083333333333333925e+00
-6.376000000000001222e+00 1.129449999999999932e+01 7.500000000000000000e+00
-6.376000000000001222e+00 1.129449999999999932e+01 7.916666666666666963e+00
-6.376000000000001222e+00 1.129449999999999932e+01 8.333333333333333925e+00
-6.376000000000001222e+00 1.129449999999999932e+01 8.750000000000000000e+00
-6.376000000000001222e+00 1.129449999999999932e+01 9.166666666666667851e+00
