7.279591162999471621e+00 3.438671549161274932e+00 1.523999913533528705e+01
7.279591162999471621e+00 3.438671549161274932e+00 1.619249908129374305e+01
7.279591162999471621e+00 3.438671549161274932e+00 1.714499902725219727e+01
7.279591162999471621e+00 3.438671549161274932e+00 1.809749897321065504e+01
7.279591162999471621e+00 3.438671549161274932e+00 1.904999891916910926e+01
7.279591162999471621e+00 3.438671549161274932e+00 2.000249886512756348e+01
7.279591162999471621e+00 3.438671549161274932e+00 2.095499881108602125e+01
7.279591162999471621e+00 3.438671549161274932e+00 2.190749875704447547e+01
7.279591162999471621e+00 3.438671549161274932e+00 2.285999870300292969e+01
7.839559713999430635e+00 3.438671549161274932e+00 0.000000000000000000e+00
7.839559713999430635e+00 3.438671549161274932e+00 9.524999459584554407e-01
7.839559713999430635e+00 3.438671549161274932e+00 1.904999891916910881e+00
7.839559713999430635e+00 3.438671549161274932e+00 2.857499837875366211e+00
7.839559713999430635e+00 3.438671549161274932e+00 3.809999783833821763e+00
7.839559713999430635e+00 3.438671549161274932e+00 4.762499729792277314e+00
7.839559713999430635e+00 3.438671549161274932e+00 5.714999675750732422e+00
7.839559713999430635e+00 3.438671549161274932e+00 6.667499621709188418e+00
7.839559713999430635e+00 3.438671549161274932e+00 7.619999567667643525e+00
7.839559713999430635e+00 3.438671549161274932e+00 8.572499513626098633e+00
7.839559713999430635e+00 3.438671549161274932e+00 9.524999459584554629e+00
7.839559713999430635e+00 3.438671549161274932e+00 1.047749940554301062e+01
7.839559713999430635e+00 3.438671549161274932e+00 1.142999935150146484e+01
7.839559713999430635e+00 3.438671549161274932e+00 1.238249929745992084e+01
7.839559713999430635e+00 3.438671549161274932e+00 1.333499924341837684e+01
7.839559713999430635e+00 3.438671549161274932e+00 1.428749918937683105e+01
7.839559713999430635e+00 3.438671549161274932e+00 1.523999913533528705e+01
7.839559713999430635e+00 3.438671549161274932e+00 1.619249908129374305e+01
7.839559713999430635e+00 3.438671549161274932e+00 1.714499902725219727e+01
7.839559713999430635e+00 3.438671549161274932e+00 1.809749897321065504e+01
7.839559713999430635e+00 3.438671549161274932e+00 1.904999891916910926e+01
7.839559713999430635e+00 3.438671549161274932e+00 2.000249886512756348e+01
7.839559713999430635e+00 3.438671549161274932e+00 2.095499881108602125e+01
7.839559713999430635e+00 3.438671549161274932e+00 2.190749875704447547e+01
7.839559713999430635e+00 3.438671549161274932e+00 2.285999870300292969e+01
8.399528264999389648e+00 3.438671549161274932e+00 0.000000000000000000e+00
8.399528264999389648e+00 3.438671549161274932e+00 9.524999459584554407e-01
8.399528264999389648e+00 3.438671549161274932e+00 1.904999891916910881e+00
8.399528264999389648e+00 3.438671549161274932e+00 2.857499837875366211e+00
8.399528264999389648e+00 3.438671549161274932e+00 3.809999783833821763e+00
8.399528264999389648e+00 3.438671549161274932e+00 4.762499729792277314e+00
8.399528264999389648e+00 3.438671549161274932e+00 5.714999675750732422e+00
8.399528264999389648e+00 3.438671549161274932e+00 6.667499621709188418e+00
8.399528264999389648e+00 3.438671549161274932e+00 7.619999567667643525e+00
8.399528264999389648e+00 3.438671549161274932e+00 8.572499513626098633e+00
8.399528264999389648e+00 3.438671549161274932e+00 9.524999459584554629e+00
8.399528264999389648e+00 3.438671549161274932e+00 1.047749940554301062e+01
8.399528264999389648e+00 3.438671549161274932e+00 1.142999935150146484e+01
8.399528264999389648e+00 3.438671549161274932e+00 1.238249929745992084e+01
8.399528264999389648e+00 3.438671549161274932e+00 1.333499924341837684e+01
8.399528264999389648e+00 3.438671549161274932e+00 1.428749918937683105e+01
8.399528264999389648e+00 3.438671549161274932e+00 1.523999913533528705e+01
8.399528264999389648e+00 3.438671549161274932e+00 1.619249908129374305e+01
8.399528264999389648e+00 3.438671549161274932e+00 1.714499902725219727e+01
8.399528264999389648e+00 3.438671549161274932e+00 1.809749897321065504e+01
8.399528264999389648e+00 3.438671549161274932e+00 1.904999891916910926e+01
8.399528264999389648e+00 3.438671549161274932e+00 2.000249886512756348e+01
8.399528264999389648e+00 3.438671549161274932e+00 2.095499881108602125e+01
8.399528264999389648e+00 3.438671549161274932e+00 2.190749875704447547e+01
8.399528264999389648e+00 3.438671549161274932e+00 2.285999870300292969e+01
8.959496815999349550e+00 3.438671549161274932e+00 9.524999459584554407e-01
8.959496815999349550e+00 3.438671549161274932e+00 1.904999891916910881e+00
8.959496815999349550e+00 3.438671549161274932e+00 2.857499837875366211e+00
8.959496815999349550e+00 3.438671549161274932e+00 3.809999783833821763e+00
8.959496815999349550e+00 3.438671549161274932e+00 4.762499729792277314e+00
8.959496815999349550e+00 3.438671549161274932e+00 5.714999675750732422e+00
8.959496815999349550e+00 3.438671549161274932e+00 6.667499621709188418e+00
8.959496815999349550e+00 3.438671549161274932e+00 7.619999567667643525e+00
8.959496815999349550e+00 3.438671549161274932e+00 8.572499513626098633e+00
8.959496815999349550e+00 3.438671549161274932e+00 9.524999459584554629e+00
8.959496815999349550e+00 3.438671549161274932e+00 1.047749940554301062e+01
8.959496815999349550e+00 3.438671549161274932e+00 1.142999935150146484e+01
8.959496815999349550e+00 3.438671549161274932e+00 1.238249929745992084e+01
8.959496815999349550e+00 3.438671549161274932e+00 1.333499924341837684e+01
8.959496815999349550e+00 3.438671549161274932e+00 1.428749918937683105e+01
8.959496815999349550e+00 3.438671549161274932e+00 1.523999913533528705e+01
8.959496815999349550e+00 3.438671549161274932e+00 1.619249908129374305e+01
8.959496815999349550e+00 3.438671549161274932e+00 1.714499902725219727e+01
8.959496815999349550e+00 3.438671549161274932e+00 1.809749897321065504e+01
8.959496815999349550e+00 3.438671549161274932e+00 1.904999891916910926e+01
8.959496815999349550e+00 3.438671549161274932e+00 2.000249886512756348e+01
8.959496815999349550e+00 3.438671549161274932e+00 2.095499881108602125e+01
8.959496815999349550e+00 3.438671549161274932e+00 2.190749875704447547e+01
9.519465366999309452e+00 3.438671549161274932e+00 4.762499729792277314e+00
9.519465366999309452e+00 3.438671549161274932e+00 5.714999675750732422e+00
9.519465366999309452e+00 3.438671549161274932e+00 6.667499621709188418e+00
9.519465366999309452e+00 3.438671549161274932e+00 7.619999567667643525e+00
9.519465366999309452e+00 3.438671549161274932e+00 8.572499513626098633e+00
9.519465366999309452e+00 3.438671549161274932e+00 9.524999459584554629e+00
9.519465366999309452e+00 3.438671549161274932e+00 1.047749940554301062e+01
9.519465366999309452e+00 3.438671549161274932e+00 1.142999935150146484e+01
9.519465366999309452e+00 3.438671549161274932e+00 1.238249929745992084e+01
9.519465366999309452e+00 3.438671549161274932e+00 1.333499924341837684e+01
9.519465366999309452e+00 3.438671549161274932e+00 1.428749918937683105e+01
9.519465366999309452e+00 3.438671549161274932e+00 1.523999913533528705e+01
9.519465366999309452e+00 3.438671549161274932e+00 1.619249908129374305e+01
9.519465366999309452e+00 3.438671549161274932e+00 1.714499902725219727e+01
9.519465366999309452e+00 3.438671549161274932e+00 1.809749897321065504e+01
9.519465366999309452e+00 3.438671549161274932e+00 1.904999891916910926e+01
9.519465366999309452e+00 3.438671549161274932e+00 2.000249886512756348e+01
9.519465366999309452e+00 3.438671549161274932e+00 2.095499881108602125e+01
9.519465366999309452e+00 3.438671549161274932e+00 2.190749875704447547e+01
9.519465366999309452e+00 3.438671549161274932e+00 2.285999870300292969e+01
1.007943391799926758e+01 3.438671549161274932e+00 4.762499729792277314e+00
1.007943391799926758e+01 3.438671549161274932e+00 5.714999675750732422e+00
1.007943391799926758e+01 3.438671549161274932e+00 6.667499621709188418e+00
1.007943391799926758e+01 3.438671549161274932e+00 7.619999567667643525e+00
1.007943391799926758e+01 3.438671549161274932e+00 8.572499513626098633e+00
1.007943391799926758e+01 3.438671549161274932e+00 9.524999459584554629e+00
1.007943391799926758e+01 3.438671549161274932e+00 1.047749940554301062e+01
1.007943391799926758e+01 3.438671549161274932e+00 1.142999935150146484e+01
1.007943391799926758e+01 3.438671549161274932e+00 1.238249929745992084e+01
1.007943391799926758e+01 3.438671549161274932e+00 1.333499924341837684e+01
1.007943391799926758e+01 3.438671549161274932e+00 1.428749918937683105e+01
1.007943391799926758e+01 3.438671549161274932e+00 1.523999913533528705e+01
1.007943391799926758e+01 3.438671549161274932e+00 1.619249908129374305e+01
1.007943391799926758e+01 3.438671549161274932e+00 1.714499902725219727e+01
1.007943391799926758e+01 3.438671549161274932e+00 1.809749897321065504e+01
1.007943391799926758e+01 3.438671549161274932e+00 1.904999891916910926e+01
1.007943391799926758e+01 3.438671549161274932e+00 2.000249886512756348e+01
1.007943391799926758e+01 3.438671549161274932e+00 2.095499881108602125e+01
1.007943391799926758e+01 3.438671549161274932e+00 2.190749875704447547e+01
1.007943391799926758e+01 3.438671549161274932e+00 2.285999870300292969e+01
1.063940246899922748e+01 3.438671549161274932e+00 2.095499881108602125e+01
1.063940246899922748e+01 3.438671549161274932e+00 2.190749875704447547e+01
1.063940246899922748e+01 3.438671549161274932e+00 2.285999870300292969e+01
1.119937101999918738e+01 3.438671549161274932e+00 2.095499881108602125e+01
1.119937101999918738e+01 3.438671549161274932e+00 2.190749875704447547e+01
1.175933957099914551e+01 3.438671549161274932e+00 2.095499881108602125e+01
1.175933957099914551e+01 3.438671549161274932e+00 2.190749875704447547e+01
1.679905652999877930e+00 3.929910341898600112e+00 2.095499881108602125e+01
1.679905652999877930e+00 3.929910341898600112e+00 2.190749875704447547e+01
1.679905652999877930e+00 3.929910341898600112e+00 2.285999870300292969e+01
2.239874203999837388e+00 3.929910341898600112e+00 2.095499881108602125e+01
2.239874203999837388e+00 3.929910341898600112e+00 2.190749875704447547e+01
2.239874203999837388e+00 3.929910341898600112e+00 2.285999870300292969e+01
2.799842754999796846e+00 3.929910341898600112e+00 4.762499729792277314e+00
2.799842754999796846e+00 3.929910341898600112e+00 5.714999675750732422e+00
2.799842754999796846e+00 3.929910341898600112e+00 6.667499621709188418e+00
2.799842754999796846e+00 3.929910341898600112e+00 7.619999567667643525e+00
2.799842754999796846e+00 3.929910341898600112e+00 8.572499513626098633e+00
2.799842754999796846e+00 3.929910341898600112e+00 9.524999459584554629e+00
2.799842754999796846e+00 3.929910341898600112e+00 1.047749940554301062e+01
2.799842754999796846e+00 3.929910341898600112e+00 1.142999935150146484e+01
2.799842754999796846e+00 3.929910341898600112e+00 1.238249929745992084e+01
2.799842754999796846e+00 3.929910341898600112e+00 1.333499924341837684e+01
2.799842754999796846e+00 3.929910341898600112e+00 1.428749918937683105e+01
2.799842754999796846e+00 3.929910341898600112e+00 1.523999913533528705e+01
2.799842754999796846e+00 3.929910341898600112e+00 1.619249908129374305e+01
2.799842754999796846e+00 3.929910341898600112e+00 1.714499902725219727e+01
2.799842754999796846e+00 3.929910341898600112e+00 1.809749897321065504e+01
2.799842754999796846e+00 3.929910341898600112e+00 1.904999891916910926e+01
2.799842754999796846e+00 3.929910341898600112e+00 2.000249886512756348e+01
2.799842754999796846e+00 3.929910341898600112e+00 2.095499881108602125e+01
2.799842754999796846e+00 3.929910341898600112e+00 2.190749875704447547e+01
2.799842754999796846e+00 3.929910341898600112e+00 2.285999870300292969e+01
3.359811305999755859e+00 3.929910341898600112e+00 4.762499729792277314e+00
3.359811305999755859e+00 3.929910341898600112e+00 5.714999675750732422e+00
3.359811305999755859e+00 3.929910341898600112e+00 6.667499621709188418e+00
3.359811305999755859e+00 3.929910341898600112e+00 7.619999567667643525e+00
3.359811305999755859e+00 3.929910341898600112e+00 8.572499513626098633e+00
3.359811305999755859e+00 3.929910341898600112e+00 9.524999459584554629e+00
3.359811305999755859e+00 3.929910341898600112e+00 1.047749940554301062e+01
3.359811305999755859e+00 3.929910341898600112e+00 1.142999935150146484e+01
3.359811305999755859e+00 3.929910341898600112e+00 1.238249929745992084e+01
3.359811305999755859e+00 3.929910341898600112e+00 1.333499924341837684e+01
3.359811305999755859e+00 3.929910341898600112e+00 1.428749918937683105e+01
3.359811305999755859e+00 3.929910341898600112e+00 1.523999913533528705e+01
3.359811305999755859e+00 3.929910341898600112e+00 1.619249908129374305e+01
3.359811305999755859e+00 3.929910341898600112e+00 1.714499902725219727e+01
3.359811305999755859e+00 3.929910341898600112e+00 1.809749897321065504e+01
3.359811305999755859e+00 3.929910341898600112e+00 1.904999891916910926e+01
3.359811305999755859e+00 3.929910341898600112e+00 2.000249886512756348e+01
3.359811305999755859e+00 3.929910341898600112e+00 2.095499881108602125e+01
3.359811305999755859e+00 3.929910341898600112e+00 2.190749875704447547e+01
3.359811305999755859e+00 3.929910341898600112e+00 2.285999870300292969e+01
3.919779856999715317e+00 3.929910341898600112e+00 0.000000000000000000e+00
3.919779856999715317e+00 3.929910341898600112e+00 9.524999459584554407e-01
3.919779856999715317e+00 3.929910341898600112e+00 1.904999891916910881e+00
3.919779856999715317e+00 3.929910341898600112e+00 2.857499837875366211e+00
3.919779856999715317e+00 3.929910341898600112e+00 3.809999783833821763e+00
3.919779856999715317e+00 3.929910341898600112e+00 4.762499729792277314e+00
3.919779856999715317e+00 3.929910341898600112e+00 5.714999675750732422e+00
3.919779856999715317e+00 3.929910341898600112e+00 6.667499621709188418e+00
3.919779856999715317e+00 3.929910341898600112e+00 7.619999567667643525e+00
3.919779856999715317e+00 3.929910341898600112e+00 8.572499513626098633e+00
3.919779856999715317e+00 3.929910341898600112e+00 9.524999459584554629e+00
3.919779856999715317e+00 3.929910341898600112e+00 1.047749940554301062e+01
3.919779856999715317e+00 3.929910341898600112e+00 1.142999935150146484e+01
3.919779856999715317e+00 3.929910341898600112e+00 1.238249929745992084e+01
3.919779856999715317e+00 3.929910341898600112e+00 1.333499924341837684e+01
3.919779856999715317e+00 3.929910341898600112e+00 1.428749918937683105e+01
3.919779856999715317e+00 3.929910341898600112e+00 1.523999913533528705e+01
3.919779856999715317e+00 3.929910341898600112e+00 1.619249908129374305e+01
3.919779856999715317e+00 3.929910341898600112e+00 1.714499902725219727e+01
3.919779856999715317e+00 3.929910341898600112e+00 1.809749897321065504e+01
3.919779856999715317e+00 3.929910341898600112e+00 1.904999891916910926e+01
3.919779856999715317e+00 3.929910341898600112e+00 2.000249886512756348e+01
3.919779856999715317e+00 3.929910341898600112e+00 2.095499881108602125e+01
3.919779856999715317e+00 3.929910341898600112e+00 2.190749875704447547e+01
3.919779856999715317e+00 3.929910341898600112e+00 2.285999870300292969e+01
4.479748407999674775e+00 3.929910341898600112e+00 0.000000000000000000e+00
4.479748407999674775e+00 3.929910341898600112e+00 9.524999459584554407e-01
4.479748407999674775e+00 3.929910341898600112e+00 1.904999891916910881e+00
4.479748407999674775e+00 3.929910341898600112e+00 2.857499837875366211e+00
4.479748407999674775e+00 3.929910341898600112e+00 3.809999783833821763e+00
4.479748407999674775e+00 3.929910341898600112e+00 4.762499729792277314e+00
4.479748407999674775e+00 3.929910341898600112e+00 5.714999675750732422e+00
4.479748407999674775e+00 3.929910341898600112e+00 6.667499621709188418e+00
4.479748407999674775e+00 3.929910341898600112e+00 7.619999567667643525e+00
4.479748407999674775e+00 3.929910341898600112e+00 8.572499513626098633e+00
4.479748407999674775e+00 3.929910341898600112e+00 9.524999459584554629e+00
4.479748407999674775e+00 3.929910341898600112e+00 1.047749940554301062e+01
4.479748407999674775e+00 3.929910341898600112e+00 1.142999935150146484e+01
4.479748407999674775e+00 3.929910341898600112e+00 1.238249929745992084e+01
4.479748407999674775e+00 3.929910341898600112e+00 1.333499924341837684e+01
4.479748407999674775e+00 3.929910341898600112e+00 1.428749918937683105e+01
4.479748407999674775e+00 3.929910341898600112e+00 1.523999913533528705e+01
4.479748407999674775e+00 3.929910341898600112e+00 1.619249908129374305e+01
4.479748407999674775e+00 3.929910341898600112e+00 1.714499902725219727e+01
4.479748407999674775e+00 3.929910341898600112e+00 1.809749897321065504e+01
4.479748407999674775e+00 3.929910341898600112e+00 1.904999891916910926e+01
4.479748407999674775e+00 3.929910341898600112e+00 2.000249886512756348e+01
4.479748407999674775e+00 3.929910341898600112e+00 2.095499881108602125e+01
4.479748407999674775e+00 3.929910341898600112e+00 2.190749875704447547e+01
4.479748407999674775e+00 3.929910341898600112e+00 2.285999870300292969e+01
5.039716958999633789e+00 3.929910341898600112e+00 0.000000000000000000e+00
5.039716958999633789e+00 3.929910341898600112e+00 9.524999459584554407e-01
5.039716958999633789e+00 3.929910341898600112e+00 1.904999891916910881e+00
5.039716958999633789e+00 3.929910341898600112e+00 2.857499837875366211e+00
5.039716958999633789e+00 3.929910341898600112e+00 3.809999783833821763e+00
5.039716958999633789e+00 3.929910341898600112e+00 4.762499729792277314e+00
5.039716958999633789e+00 3.929910341898600112e+00 5.714999675750732422e+00
5.039716958999633789e+00 3.929910341898600112e+00 6.667499621709188418e+00
5.039716958999633789e+00 3.929910341898600112e+00 7.619999567667643525e+00
5.039716958999633789e+00 3.929910341898600112e+00 8.572499513626098633e+00
5.039716958999633789e+00 3.929910341898600112e+00 9.524999459584554629e+00
5.039716958999633789e+00 3.929910341898600112e+00 1.047749940554301062e+01
5.039716958999633789e+00 3.929910341898600112e+00 1.142999935150146484e+01
5.039716958999633789e+00 3.929910341898600112e+00 1.238249929745992084e+01
5.039716958999633789e+00 3.929910341898600112e+00 1.333499924341837684e+01
5.039716958999633789e+00 3.929910341898600112e+00 1.428749918937683105e+01
5.039716958999633789e+00 3.929910341898600112e+00 1.523999913533528705e+01
5.039716958999633789e+00 3.929910341898600112e+00 1.619249908129374305e+01
5.039716958999633789e+00 3.929910341898600112e+00 1.714499902725219727e+01
5.039716958999633789e+00 3.929910341898600112e+00 1.809749897321065504e+01
5.039716958999633789e+00 3.929910341898600112e+00 1.904999891916910926e+01
5.039716958999633789e+00 3.929910341898600112e+00 2.000249886512756348e+01
5.039716958999633789e+00 3.929910341898600112e+00 2.095499881108602125e+01
5.039716958999633789e+00 3.929910341898600112e+00 2.190749875704447547e+01
5.039716958999633789e+00 3.929910341898600112e+00 2.285999870300292969e+01
5.599685509999593691e+00 3.929910341898600112e+00 0.000000000000000000e+00
5.599685509999593691e+00 3.929910341898600112e+00 9.524999459584554407e-01
5.599685509999593691e+00 3.929910341898600112e+00 1.904999891916910881e+00
5.599685509999593691e+00 3.929910341898600112e+00 2.857499837875366211e+00
5.599685509999593691e+00 3.929910341898600112e+00 3.809999783833821763e+00
5.599685509999593691e+00 3.929910341898600112e+00 4.762499729792277314e+00
5.599685509999593691e+00 3.929910341898600112e+00 5.714999675750732422e+00
5.599685509999593691e+00 3.929910341898600112e+00 6.667499621709188418e+00
5.599685509999593691e+00 3.929910341898600112e+00 7.619999567667643525e+00
5.599685509999593691e+00 3.929910341898600112e+00 8.572499513626098633e+00
5.599685509999593691e+00 3.929910341898600112e+00 9.524999459584554629e+00
5.599685509999593691e+00 3.929910341898600112e+00 1.047749940554301062e+01
5.599685509999593691e+00 3.929910341898600112e+00 1.142999935150146484e+01
5.599685509999593691e+00 3.929910341898600112e+00 1.238249929745992084e+01
5.599685509999593691e+00 3.929910341898600112e+00 1.333499924341837684e+01
5.599685509999593691e+00 3.929910341898600112e+00 1.428749918937683105e+01
5.599685509999593691e+00 3.929910341898600112e+00 1.523999913533528705e+01
5.599685509999593691e+00 3.929910341898600112e+00 1.619249908129374305e+01
5.599685509999593691e+00 3.929910341898600112e+00 1.714499902725219727e+01
5.599685509999593691e+00 3.929910341898600112e+00 1.809749897321065504e+01
5.599685509999593691e+00 3.929910341898600112e+00 1.904999891916910926e+01
5.599685509999593691e+00 3.929910341898600112e+00 2.000249886512756348e+01
5.599685509999593691e+00 3.929910341898600112e+00 2.095499881108602125e+01
5.599685509999593691e+00 3.929910341898600112e+00 2.190749875704447547e+01
5.599685509999593691e+00 3.929910341898600112e+00 2.285999870300292969e+01
6.159654060999552705e+00 3.929910341898600112e+00 0.000000000000000000e+00
6.159654060999552705e+00 3.929910341898600112e+00 9.524999459584554407e-01
6.159654060999552705e+00 3.929910341898600112e+00 1.904999891916910881e+00
6.159654060999552705e+00 3.929910341898600112e+00 2.857499837875366211e+00
6.159654060999552705e+00 3.929910341898600112e+00 3.809999783833821763e+00
6.159654060999552705e+00 3.929910341898600112e+00 4.762499729792277314e+00
6.159654060999552705e+00 3.929910341898600112e+00 5.714999675750732422e+00
6.159654060999552705e+00 3.929910341898600112e+00 6.667499621709188418e+00
6.159654060999552705e+00 3.929910341898600112e+00 7.619999567667643525e+00
6.159654060999552705e+00 3.929910341898600112e+00 8.572499513626098633e+00
6.159654060999552705e+00 3.929910341898600112e+00 9.524999459584554629e+00
6.159654060999552705e+00 3.929910341898600112e+00 1.047749940554301062e+01
6.159654060999552705e+00 3.929910341898600112e+00 1.142999935150146484e+01
6.159654060999552705e+00 3.929910341898600112e+00 1.238249929745992084e+01
6.159654060999552705e+00 3.929910341898600112e+00 1.333499924341837684e+01
6.159654060999552705e+00 3.929910341898600112e+00 1.428749918937683105e+01
6.159654060999552705e+00 3.929910341898600112e+00 1.523999913533528705e+01
6.159654060999552705e+00 3.929910341898600112e+00 1.619249908129374305e+01
6.159654060999552705e+00 3.929910341898600112e+00 1.714499902725219727e+01
6.159654060999552705e+00 3.929910341898600112e+00 1.809749897321065504e+01
6.159654060999552705e+00 3.929910341898600112e+00 1.904999891916910926e+01
6.159654060999552705e+00 3.929910341898600112e+00 2.000249886512756348e+01
6.159654060999552705e+00 3.929910341898600112e+00 2.095499881108602125e+01
6.159654060999552705e+00 3.929910341898600112e+00 2.190749875704447547e+01
6.159654060999552705e+00 3.929910341898600112e+00 2.285999870300292969e+01
6.719622611999511719e+00 3.929910341898600112e+00 9.524999459584554407e-01
6.719622611999511719e+00 3.929910341898600112e+00 1.904999891916910881e+00
6.719622611999511719e+00 3.929910341898600112e+00 2.857499837875366211e+00
6.719622611999511719e+00 3.929910341898600112e+00 3.809999783833821763e+00
6.719622611999511719e+00 3.929910341898600112e+00 4.762499729792277314e+00
6.719622611999511719e+00 3.929910341898600112e+00 5.714999675750732422e+00
6.719622611999511719e+00 3.929910341898600112e+00 6.667499621709188418e+00
6.719622611999511719e+00 3.929910341898600112e+00 7.619999567667643525e+00
6.719622611999511719e+00 3.929910341898600112e+00 8.572499513626098633e+00
6.719622611999511719e+00 3.929910341898600112e+00 9.524999459584554629e+00
6.719622611999511719e+00 3.929910341898600112e+00 1.047749940554301062e+01
6.719622611999511719e+00 3.929910341898600112e+00 1.142999935150146484e+01
6.719622611999511719e+00 3.929910341898600112e+00 1.238249929745992084e+01
6.719622611999511719e+00 3.929910341898600112e+00 1.333499924341837684e+01
6.719622611999511719e+00 3.929910341898600112e+00 1.428749918937683105e+01
6.719622611999511719e+00 3.929910341898600112e+00 1.523999913533528705e+01
6.719622611999511719e+00 3.929910341898600112e+00 1.619249908129374305e+01
6.719622611999511719e+00 3.929910341898600112e+00 1.714499902725219727e+01
6.719622611999511719e+00 3.929910341898600112e+00 1.809749897321065504e+01
6.719622611999511719e+00 3.929910341898600112e+00 1.904999891916910926e+01
6.719622611999511719e+00 3.929910341898600112e+00 2.000249886512756348e+01
6.719622611999511719e+00 3.929910341898600112e+00 2.095499881108602125e+01
6.719622611999511719e+00 3.929910341898600112e+00 2.190749875704447547e+01
6.719622611999511719e+00 3.929910341898600112e+00 2.285999870300292969e+01
7.279591162999471621e+00 3.929910341898600112e+00 0.000000000000000000e+00
7.279591162999471621e+00 3.929910341898600112e+00 9.524999459584554407e-01
7.279591162999471621e+00 3.929910341898600112e+00 1.904999891916910881e+00
7.279591162999471621e+00 3.929910341898600112e+00 2.857499837875366211e+00
7.279591162999471621e+00 3.929910341898600112e+00 3.809999783833821763e+00
7.279591162999471621e+00 3.929910341898600112e+00 4.762499729792277314e+00
7.279591162999471621e+00 3.929910341898600112e+00 5.714999675750732422e+00
7.279591162999471621e+00 3.929910341898600112e+00 6.667499621709188418e+00
7.279591162999471621e+00 3.929910341898600112e+00 7.619999567667643525e+00
7.279591162999471621e+00 3.929910341898600112e+00 8.572499513626098633e+00
7.279591162999471621e+00 3.929910341898600112e+00 9.524999459584554629e+00
7.279591162999471621e+00 3.929910341898600112e+00 1.047749940554301062e+01
7.279591162999471621e+00 3.929910341898600112e+00 1.142999935150146484e+01
7.279591162999471621e+00 3.929910341898600112e+00 1.238249929745992084e+01
7.279591162999471621e+00 3.929910341898600112e+00 1.333499924341837684e+01
7.279591162999471621e+00 3.929910341898600112e+00 1.428749918937683105e+01
7.279591162999471621e+00 3.929910341898600112e+00 1.523999913533528705e+01
7.279591162999471621e+00 3.929910341898600112e+00 1.619249908129374305e+01
7.279591162999471621e+00 3.929910341898600112e+00 1.714499902725219727e+01
7.279591162999471621e+00 3.929910341898600112e+00 1.809749897321065504e+01
7.279591162999471621e+00 3.929910341898600112e+00 1.904999891916910926e+01
7.279591162999471621e+00 3.929910341898600112e+00 2.000249886512756348e+01
7.279591162999471621e+00 3.929910341898600112e+00 2.095499881108602125e+01
7.279591162999471621e+00 3.929910341898600112e+00 2.190749875704447547e+01
7.279591162999471621e+00 3.929910341898600112e+00 2.285999870300292969e+01
7.839559713999430635e+00 3.929910341898600112e+00 0.000000000000000000e+00
7.839559713999430635e+00 3.929910341898600112e+00 9.524999459584554407e-01
7.839559713999430635e+00 3.929910341898600112e+00 1.904999891916910881e+00
7.839559713999430635e+00 3.929910341898600112e+00 2.857499837875366211e+00
7.839559713999430635e+00 3.929910341898600112e+00 3.809999783833821763e+00
7.839559713999430635e+00 3.929910341898600112e+00 4.762499729792277314e+00
7.839559713999430635e+00 3.929910341898600112e+00 6.667499621709188418e+00
7.839559713999430635e+00 3.929910341898600112e+00 7.619999567667643525e+00
7.839559713999430635e+00 3.929910341898600112e+00 8.572499513626098633e+00
7.839559713999430635e+00 3.929910341898600112e+00 9.524999459584554629e+00
7.839559713999430635e+00 3.929910341898600112e+00 1.047749940554301062e+01
7.839559713999430635e+00 3.929910341898600112e+00 1.142999935150146484e+01
7.839559713999430635e+00 3.929910341898600112e+00 1.238249929745992084e+01
7.839559713999430635e+00 3.929910341898600112e+00 1.333499924341837684e+01
7.839559713999430635e+00 3.929910341898600112e+00 1.428749918937683105e+01
7.839559713999430635e+00 3.929910341898600112e+00 1.523999913533528705e+01
7.839559713999430635e+00 3.929910341898600112e+00 1.619249908129374305e+01
7.839559713999430635e+00 3.929910341898600112e+00 1.714499902725219727e+01
7.839559713999430635e+00 3.929910341898600112e+00 1.809749897321065504e+01
7.839559713999430635e+00 3.929910341898600112e+00 1.904999891916910926e+01
7.839559713999430635e+00 3.929910341898600112e+00 2.000249886512756348e+01
7.839559713999430635e+00 3.929910341898600112e+00 2.095499881108602125e+01
7.839559713999430635e+00 3.929910341898600112e+00 2.190749875704447547e+01
7.839559713999430635e+00 3.929910341898600112e+00 2.285999870300292969e+01
8.399528264999389648e+00 3.929910341898600112e+00 0.000000000000000000e+00
8.399528264999389648e+00 3.929910341898600112e+00 9.524999459584554407e-01
8.399528264999389648e+00 3.929910341898600112e+00 1.904999891916910881e+00
8.399528264999389648e+00 3.929910341898600112e+00 2.857499837875366211e+00
8.399528264999389648e+00 3.929910341898600112e+00 3.809999783833821763e+00
8.399528264999389648e+00 3.929910341898600112e+00 4.762499729792277314e+00
8.399528264999389648e+00 3.929910341898600112e+00 5.714999675750732422e+00
8.399528264999389648e+00 3.929910341898600112e+00 6.667499621709188418e+00
8.399528264999389648e+00 3.929910341898600112e+00 7.619999567667643525e+00
8.399528264999389648e+00 3.929910341898600112e+00 8.572499513626098633e+00
8.399528264999389648e+00 3.929910341898600112e+00 9.524999459584554629e+00
8.399528264999389648e+00 3.929910341898600112e+00 1.047749940554301062e+01
8.399528264999389648e+00 3.929910341898600112e+00 1.142999935150146484e+01
8.399528264999389648e+00 3.929910341898600112e+00 1.238249929745992084e+01
8.399528264999389648e+00 3.929910341898600112e+00 1.333499924341837684e+01
8.399528264999389648e+00 3.929910341898600112e+00 1.428749918937683105e+01
8.399528264999389648e+00 3.929910341898600112e+00 1.523999913533528705e+01
8.399528264999389648e+00 3.929910341898600112e+00 1.619249908129374305e+01
8.399528264999389648e+00 3.929910341898600112e+00 1.714499902725219727e+01
8.399528264999389648e+00 3.929910341898600112e+00 1.809749897321065504e+01
8.399528264999389648e+00 3.929910341898600112e+00 1.904999891916910926e+01
8.399528264999389648e+00 3.929910341898600112e+00 2.000249886512756348e+01
8.399528264999389648e+00 3.929910341898600112e+00 2.095499881108602125e+01
8.399528264999389648e+00 3.929910341898600112e+00 2.190749875704447547e+01
8.959496815999349550e+00 3.929910341898600112e+00 0.000000000000000000e+00
8.959496815999349550e+00 3.929910341898600112e+00 9.524999459584554407e-01
8.959496815999349550e+00 3.929910341898600112e+00 1.904999891916910881e+00
8.959496815999349550e+00 3.929910341898600112e+00 2.857499837875366211e+00
8.959496815999349550e+00 3.929910341898600112e+00 3.809999783833821763e+00
8.959496815999349550e+00 3.929910341898600112e+00 4.762499729792277314e+00
8.959496815999349550e+00 3.929910341898600112e+00 5.714999675750732422e+00
8.959496815999349550e+00 3.929910341898600112e+00 6.667499621709188418e+00
8.959496815999349550e+00 3.929910341898600112e+00 7.619999567667643525e+00
8.959496815999349550e+00 3.929910341898600112e+00 8.572499513626098633e+00
8.959496815999349550e+00 3.929910341898600112e+00 9.524999459584554629e+00
8.959496815999349550e+00 3.929910341898600112e+00 1.047749940554301062e+01
8.959496815999349550e+00 3.929910341898600112e+00 1.142999935150146484e+01
8.959496815999349550e+00 3.929910341898600112e+00 1.238249929745992084e+01
8.959496815999349550e+00 3.929910341898600112e+00 1.333499924341837684e+01
8.959496815999349550e+00 3.929910341898600112e+00 1.428749918937683105e+01
8.959496815999349550e+00 3.929910341898600112e+00 1.523999913533528705e+01
8.959496815999349550e+00 3.929910341898600112e+00 1.619249908129374305e+01
8.959496815999349550e+00 3.929910341898600112e+00 1.714499902725219727e+01
8.959496815999349550e+00 3.929910341898600112e+00 1.809749897321065504e+01
8.959496815999349550e+00 3.929910341898600112e+00 1.904999891916910926e+01
8.959496815999349550e+00 3.929910341898600112e+00 2.000249886512756348e+01
8.959496815999349550e+00 3.929910341898600112e+00 2.095499881108602125e+01
8.959496815999349550e+00 3.929910341898600112e+00 2.190749875704447547e+01
9.519465366999309452e+00 3.929910341898600112e+00 9.524999459584554407e-01
9.519465366999309452e+00 3.929910341898600112e+00 1.904999891916910881e+00
9.519465366999309452e+00 3.929910341898600112e+00 2.857499837875366211e+00
9.519465366999309452e+00 3.929910341898600112e+00 3.809999783833821763e+00
9.519465366999309452e+00 3.929910341898600112e+00 4.762499729792277314e+00
9.519465366999309452e+00 3.929910341898600112e+00 5.714999675750732422e+00
9.519465366999309452e+00 3.929910341898600112e+00 6.667499621709188418e+00
9.519465366999309452e+00 3.929910341898600112e+00 7.619999567667643525e+00
9.519465366999309452e+00 3.929910341898600112e+00 8.572499513626098633e+00
9.519465366999309452e+00 3.929910341898600112e+00 9.524999459584554629e+00
9.519465366999309452e+00 3.929910341898600112e+00 1.047749940554301062e+01
9.519465366999309452e+00 3.929910341898600112e+00 1.142999935150146484e+01
9.519465366999309452e+00 3.929910341898600112e+00 1.238249929745992084e+01
9.519465366999309452e+00 3.929910341898600112e+00 1.333499924341837684e+01
9.519465366999309452e+00 3.929910341898600112e+00 1.428749918937683105e+01
9.519465366999309452e+00 3.929910341898600112e+00 1.523999913533528705e+01
9.519465366999309452e+00 3.929910341898600112e+00 1.619249908129374305e+01
9.519465366999309452e+00 3.929910341898600112e+00 1.714499902725219727e+01
9.519465366999309452e+00 3.929910341898600112e+00 1.809749897321065504e+01
9.519465366999309452e+00 3.929910341898600112e+00 1.904999891916910926e+01
9.519465366999309452e+00 3.929910341898600112e+00 2.000249886512756348e+01
9.519465366999309452e+00 3.929910341898600112e+00 2.095499881108602125e+01
9.519465366999309452e+00 3.929910341898600112e+00 2.190749875704447547e+01
9.519465366999309452e+00 3.929910341898600112e+00 2.285999870300292969e+01
1.007943391799926758e+01 3.929910341898600112e+00 4.762499729792277314e+00
1.007943391799926758e+01 3.929910341898600112e+00 5.714999675750732422e+00
1.007943391799926758e+01 3.929910341898600112e+00 6.667499621709188418e+00
1.007943391799926758e+01 3.929910341898600112e+00 7.619999567667643525e+00
1.007943391799926758e+01 3.929910341898600112e+00 8.572499513626098633e+00
1.007943391799926758e+01 3.929910341898600112e+00 9.524999459584554629e+00
1.007943391799926758e+01 3.929910341898600112e+00 1.047749940554301062e+01
1.007943391799926758e+01 3.929910341898600112e+00 1.142999935150146484e+01
1.007943391799926758e+01 3.929910341898600112e+00 1.238249929745992084e+01
1.007943391799926758e+01 3.929910341898600112e+00 1.333499924341837684e+01
1.007943391799926758e+01 3.929910341898600112e+00 1.428749918937683105e+01
1.007943391799926758e+01 3.929910341898600112e+00 1.523999913533528705e+01
1.007943391799926758e+01 3.929910341898600112e+00 1.619249908129374305e+01
1.007943391799926758e+01 3.929910341898600112e+00 1.714499902725219727e+01
1.007943391799926758e+01 3.929910341898600112e+00 1.809749897321065504e+01
1.007943391799926758e+01 3.929910341898600112e+00 1.904999891916910926e+01
1.007943391799926758e+01 3.929910341898600112e+00 2.000249886512756348e+01
1.007943391799926758e+01 3.929910341898600112e+00 2.095499881108602125e+01
1.007943391799926758e+01 3.929910341898600112e+00 2.190749875704447547e+01
1.007943391799926758e+01 3.929910341898600112e+00 2.285999870300292969e+01
1.063940246899922748e+01 3.929910341898600112e+00 4.762499729792277314e+00
1.063940246899922748e+01 3.929910341898600112e+00 5.714999675750732422e+00
1.063940246899922748e+01 3.929910341898600112e+00 6.667499621709188418e+00
1.063940246899922748e+01 3.929910341898600112e+00 7.619999567667643525e+00
1.063940246899922748e+01 3.929910341898600112e+00 8.572499513626098633e+00
1.063940246899922748e+01 3.929910341898600112e+00 9.524999459584554629e+00
1.063940246899922748e+01 3.929910341898600112e+00 1.047749940554301062e+01
1.063940246899922748e+01 3.929910341898600112e+00 1.142999935150146484e+01
1.063940246899922748e+01 3.929910341898600112e+00 1.238249929745992084e+01
1.063940246899922748e+01 3.929910341898600112e+00 1.333499924341837684e+01
1.063940246899922748e+01 3.929910341898600112e+00 1.428749918937683105e+01
1.063940246899922748e+01 3.929910341898600112e+00 1.523999913533528705e+01
1.063940246899922748e+01 3.929910341898600112e+00 1.619249908129374305e+01
1.063940246899922748e+01 3.929910341898600112e+00 1.714499902725219727e+01
1.063940246899922748e+01 3.929910341898600112e+00 1.809749897321065504e+01
1.063940246899922748e+01 3.929910341898600112e+00 1.904999891916910926e+01
1.063940246899922748e+01 3.929910341898600112e+00 2.000249886512756348e+01
1.063940246899922748e+01 3.929910341898600112e+00 2.095499881108602125e+01
1.063940246899922748e+01 3.929910341898600112e+00 2.190749875704447547e+01
1.063940246899922748e+01 3.929910341898600112e+00 2.285999870300292969e+01
1.119937101999918738e+01 3.929910341898600112e+00 2.095499881108602125e+01
1.119937101999918738e+01 3.929910341898600112e+00 2.190749875704447547e+01
1.119937101999918738e+01 3.929910341898600112e+00 2.285999870300292969e+01
1.175933957099914551e+01 3.929910341898600112e+00 2.095499881108602125e+01
1.175933957099914551e+01 3.929910341898600112e+00 2.190749875704447547e+01
1.175933957099914551e+01 3.929910341898600112e+00 2.285999870300292969e+01
1.231930812199910541e+01 3.929910341898600112e+00 2.095499881108602125e+01
1.231930812199910541e+01 3.929910341898600112e+00 2.190749875704447547e+01
1.231930812199910541e+01 3.929910341898600112e+00 2.285999870300292969e+01
1.119937101999918694e+00 4.421149134635925293e+00 2.095499881108602125e+01
1.119937101999918694e+00 4.421149134635925293e+00 2.190749875704447547e+01
1.119937101999918694e+00 4.421149134635925293e+00 2.285999870300292969e+01
1.679905652999877930e+00 4.421149134635925293e+00 2.095499881108602125e+01
1.679905652999877930e+00 4.421149134635925293e+00 2.190749875704447547e+01
1.679905652999877930e+00 4.421149134635925293e+00 2.285999870300292969e+01
2.239874203999837388e+00 4.421149134635925293e+00 2.095499881108602125e+01
2.239874203999837388e+00 4.421149134635925293e+00 2.190749875704447547e+01
2.799842754999796846e+00 4.421149134635925293e+00 4.762499729792277314e+00
2.799842754999796846e+00 4.421149134635925293e+00 5.714999675750732422e+00
2.799842754999796846e+00 4.421149134635925293e+00 6.667499621709188418e+00
2.799842754999796846e+00 4.421149134635925293e+00 7.619999567667643525e+00
2.799842754999796846e+00 4.421149134635925293e+00 8.572499513626098633e+00
2.799842754999796846e+00 4.421149134635925293e+00 9.524999459584554629e+00
2.799842754999796846e+00 4.421149134635925293e+00 1.047749940554301062e+01
2.799842754999796846e+00 4.421149134635925293e+00 1.142999935150146484e+01
2.799842754999796846e+00 4.421149134635925293e+00 1.238249929745992084e+01
2.799842754999796846e+00 4.421149134635925293e+00 1.333499924341837684e+01
2.799842754999796846e+00 4.421149134635925293e+00 1.428749918937683105e+01
2.799842754999796846e+00 4.421149134635925293e+00 1.523999913533528705e+01
2.799842754999796846e+00 4.421149134635925293e+00 1.619249908129374305e+01
2.799842754999796846e+00 4.421149134635925293e+00 1.714499902725219727e+01
2.799842754999796846e+00 4.421149134635925293e+00 1.809749897321065504e+01
2.799842754999796846e+00 4.421149134635925293e+00 1.904999891916910926e+01
2.799842754999796846e+00 4.421149134635925293e+00 2.000249886512756348e+01
2.799842754999796846e+00 4.421149134635925293e+00 2.095499881108602125e+01
2.799842754999796846e+00 4.421149134635925293e+00 2.190749875704447547e+01
2.799842754999796846e+00 4.421149134635925293e+00 2.285999870300292969e+01
3.359811305999755859e+00 4.421149134635925293e+00 4.762499729792277314e+00
3.359811305999755859e+00 4.421149134635925293e+00 5.714999675750732422e+00
3.359811305999755859e+00 4.421149134635925293e+00 6.667499621709188418e+00
3.359811305999755859e+00 4.421149134635925293e+00 7.619999567667643525e+00
3.359811305999755859e+00 4.421149134635925293e+00 8.572499513626098633e+00
3.359811305999755859e+00 4.421149134635925293e+00 9.524999459584554629e+00
3.359811305999755859e+00 4.421149134635925293e+00 1.047749940554301062e+01
3.359811305999755859e+00 4.421149134635925293e+00 1.142999935150146484e+01
3.359811305999755859e+00 4.421149134635925293e+00 1.238249929745992084e+01
3.359811305999755859e+00 4.421149134635925293e+00 1.333499924341837684e+01
3.359811305999755859e+00 4.421149134635925293e+00 1.428749918937683105e+01
3.359811305999755859e+00 4.421149134635925293e+00 1.523999913533528705e+01
3.359811305999755859e+00 4.421149134635925293e+00 1.619249908129374305e+01
3.359811305999755859e+00 4.421149134635925293e+00 1.714499902725219727e+01
3.359811305999755859e+00 4.421149134635925293e+00 1.809749897321065504e+01
3.359811305999755859e+00 4.421149134635925293e+00 1.904999891916910926e+01
3.359811305999755859e+00 4.421149134635925293e+00 2.000249886512756348e+01
3.359811305999755859e+00 4.421149134635925293e+00 2.095499881108602125e+01
3.359811305999755859e+00 4.421149134635925293e+00 2.190749875704447547e+01
3.359811305999755859e+00 4.421149134635925293e+00 2.285999870300292969e+01
3.919779856999715317e+00 4.421149134635925293e+00 9.524999459584554407e-01
3.919779856999715317e+00 4.421149134635925293e+00 1.904999891916910881e+00
3.919779856999715317e+00 4.421149134635925293e+00 2.857499837875366211e+00
3.919779856999715317e+00 4.421149134635925293e+00 3.809999783833821763e+00
3.919779856999715317e+00 4.421149134635925293e+00 4.762499729792277314e+00
3.919779856999715317e+00 4.421149134635925293e+00 5.714999675750732422e+00
3.919779856999715317e+00 4.421149134635925293e+00 6.667499621709188418e+00
3.919779856999715317e+00 4.421149134635925293e+00 7.619999567667643525e+00
3.919779856999715317e+00 4.421149134635925293e+00 8.572499513626098633e+00
3.919779856999715317e+00 4.421149134635925293e+00 9.524999459584554629e+00
3.919779856999715317e+00 4.421149134635925293e+00 1.047749940554301062e+01
3.919779856999715317e+00 4.421149134635925293e+00 1.142999935150146484e+01
3.919779856999715317e+00 4.421149134635925293e+00 1.238249929745992084e+01
3.919779856999715317e+00 4.421149134635925293e+00 1.333499924341837684e+01
3.919779856999715317e+00 4.421149134635925293e+00 1.428749918937683105e+01
3.919779856999715317e+00 4.421149134635925293e+00 1.523999913533528705e+01
3.919779856999715317e+00 4.421149134635925293e+00 1.619249908129374305e+01
3.919779856999715317e+00 4.421149134635925293e+00 1.714499902725219727e+01
3.919779856999715317e+00 4.421149134635925293e+00 1.809749897321065504e+01
3.919779856999715317e+00 4.421149134635925293e+00 1.904999891916910926e+01
3.919779856999715317e+00 4.421149134635925293e+00 2.000249886512756348e+01
3.919779856999715317e+00 4.421149134635925293e+00 2.095499881108602125e+01
3.919779856999715317e+00 4.421149134635925293e+00 2.190749875704447547e+01
3.919779856999715317e+00 4.421149134635925293e+00 2.285999870300292969e+01
4.479748407999674775e+00 4.421149134635925293e+00 0.000000000000000000e+00
4.479748407999674775e+00 4.421149134635925293e+00 9.524999459584554407e-01
4.479748407999674775e+00 4.421149134635925293e+00 1.904999891916910881e+00
4.479748407999674775e+00 4.421149134635925293e+00 2.857499837875366211e+00
4.479748407999674775e+00 4.421149134635925293e+00 3.809999783833821763e+00
4.479748407999674775e+00 4.421149134635925293e+00 4.762499729792277314e+00
4.479748407999674775e+00 4.421149134635925293e+00 5.714999675750732422e+00
4.479748407999674775e+00 4.421149134635925293e+00 6.667499621709188418e+00
4.479748407999674775e+00 4.421149134635925293e+00 7.619999567667643525e+00
4.479748407999674775e+00 4.421149134635925293e+00 8.572499513626098633e+00
4.479748407999674775e+00 4.421149134635925293e+00 9.524999459584554629e+00
4.479748407999674775e+00 4.421149134635925293e+00 1.047749940554301062e+01
4.479748407999674775e+00 4.421149134635925293e+00 1.142999935150146484e+01
4.479748407999674775e+00 4.421149134635925293e+00 1.238249929745992084e+01
4.479748407999674775e+00 4.421149134635925293e+00 1.333499924341837684e+01
4.479748407999674775e+00 4.421149134635925293e+00 1.428749918937683105e+01
4.479748407999674775e+00 4.421149134635925293e+00 1.523999913533528705e+01
4.479748407999674775e+00 4.421149134635925293e+00 1.619249908129374305e+01
4.479748407999674775e+00 4.421149134635925293e+00 1.714499902725219727e+01
4.479748407999674775e+00 4.421149134635925293e+00 1.809749897321065504e+01
4.479748407999674775e+00 4.421149134635925293e+00 1.904999891916910926e+01
4.479748407999674775e+00 4.421149134635925293e+00 2.000249886512756348e+01
4.479748407999674775e+00 4.421149134635925293e+00 2.095499881108602125e+01
4.479748407999674775e+00 4.421149134635925293e+00 2.190749875704447547e+01
4.479748407999674775e+00 4.421149134635925293e+00 2.285999870300292969e+01
5.039716958999633789e+00 4.421149134635925293e+00 9.524999459584554407e-01
5.039716958999633789e+00 4.421149134635925293e+00 1.904999891916910881e+00
5.039716958999633789e+00 4.421149134635925293e+00 2.857499837875366211e+00
5.039716958999633789e+00 4.421149134635925293e+00 3.809999783833821763e+00
5.039716958999633789e+00 4.421149134635925293e+00 4.762499729792277314e+00
5.039716958999633789e+00 4.421149134635925293e+00 5.714999675750732422e+00
5.039716958999633789e+00 4.421149134635925293e+00 6.667499621709188418e+00
5.039716958999633789e+00 4.421149134635925293e+00 7.619999567667643525e+00
5.039716958999633789e+00 4.421149134635925293e+00 8.572499513626098633e+00
5.039716958999633789e+00 4.421149134635925293e+00 9.524999459584554629e+00
5.039716958999633789e+00 4.421149134635925293e+00 1.047749940554301062e+01
5.039716958999633789e+00 4.421149134635925293e+00 1.142999935150146484e+01
5.039716958999633789e+00 4.421149134635925293e+00 1.238249929745992084e+01
5.039716958999633789e+00 4.421149134635925293e+00 1.333499924341837684e+01
5.039716958999633789e+00 4.421149134635925293e+00 1.428749918937683105e+01
5.039716958999633789e+00 4.421149134635925293e+00 1.523999913533528705e+01
5.039716958999633789e+00 4.421149134635925293e+00 1.619249908129374305e+01
5.039716958999633789e+00 4.421149134635925293e+00 1.714499902725219727e+01
5.039716958999633789e+00 4.421149134635925293e+00 1.809749897321065504e+01
5.039716958999633789e+00 4.421149134635925293e+00 1.904999891916910926e+01
5.039716958999633789e+00 4.421149134635925293e+00 2.000249886512756348e+01
5.039716958999633789e+00 4.421149134635925293e+00 2.095499881108602125e+01
5.039716958999633789e+00 4.421149134635925293e+00 2.190749875704447547e+01
5.039716958999633789e+00 4.421149134635925293e+00 2.285999870300292969e+01
5.599685509999593691e+00 4.421149134635925293e+00 0.000000000000000000e+00
5.599685509999593691e+00 4.421149134635925293e+00 9.524999459584554407e-01
5.599685509999593691e+00 4.421149134635925293e+00 1.904999891916910881e+00
5.599685509999593691e+00 4.421149134635925293e+00 2.857499837875366211e+00
5.599685509999593691e+00 4.421149134635925293e+00 3.809999783833821763e+00
5.599685509999593691e+00 4.421149134635925293e+00 4.762499729792277314e+00
5.599685509999593691e+00 4.421149134635925293e+00 5.714999675750732422e+00
5.599685509999593691e+00 4.421149134635925293e+00 6.667499621709188418e+00
5.599685509999593691e+00 4.421149134635925293e+00 7.619999567667643525e+00
5.599685509999593691e+00 4.421149134635925293e+00 8.572499513626098633e+00
5.599685509999593691e+00 4.421149134635925293e+00 9.524999459584554629e+00
5.599685509999593691e+00 4.421149134635925293e+00 1.047749940554301062e+01
5.599685509999593691e+00 4.421149134635925293e+00 1.142999935150146484e+01
5.599685509999593691e+00 4.421149134635925293e+00 1.238249929745992084e+01
5.599685509999593691e+00 4.421149134635925293e+00 1.333499924341837684e+01
5.599685509999593691e+00 4.421149134635925293e+00 1.428749918937683105e+01
5.599685509999593691e+00 4.421149134635925293e+00 1.523999913533528705e+01
5.599685509999593691e+00 4.421149134635925293e+00 1.619249908129374305e+01
5.599685509999593691e+00 4.421149134635925293e+00 1.714499902725219727e+01
5.599685509999593691e+00 4.421149134635925293e+00 1.809749897321065504e+01
5.599685509999593691e+00 4.421149134635925293e+00 1.904999891916910926e+01
5.599685509999593691e+00 4.421149134635925293e+00 2.000249886512756348e+01
5.599685509999593691e+00 4.421149134635925293e+00 2.095499881108602125e+01
5.599685509999593691e+00 4.421149134635925293e+00 2.190749875704447547e+01
6.159654060999552705e+00 4.421149134635925293e+00 0.000000000000000000e+00
