-4.803571530750819774e-01 6.571428690637859393e-02 -2.300000041723251343e-01
-4.803571530750819774e-01 6.571428690637859393e-02 -1.971428607191358373e-01
-4.803571530750819774e-01 6.571428690637859393e-02 -1.642857172659465403e-01
-4.803571530750819774e-01 6.571428690637859393e-02 -1.314285738127572156e-01
-4.803571530750819774e-01 6.571428690637859393e-02 -9.857143035956791866e-02
-4.803571530750819774e-01 6.571428690637859393e-02 -6.571428690637862169e-02
-4.803571530750819774e-01 6.571428690637859393e-02 -3.285714345318929697e-02
-4.803571530750819774e-01 6.571428690637859393e-02 0.000000000000000000e+00
-4.803571530750819774e-01 6.571428690637859393e-02 3.285714345318929697e-02
-4.803571530750819774e-01 6.571428690637859393e-02 6.571428690637859393e-02
-4.803571530750819774e-01 6.571428690637859393e-02 9.857143035956789090e-02
-4.803571530750819774e-01 6.571428690637859393e-02 1.314285738127571879e-01
-4.803571530750819774e-01 6.571428690637859393e-02 1.642857172659465403e-01
-4.803571530750819774e-01 6.571428690637859393e-02 1.971428607191358373e-01
-4.803571530750819774e-01 6.571428690637859393e-02 2.300000041723251343e-01
-3.842857224600655375e-01 6.571428690637859393e-02 -1.971428607191358373e-01
-3.842857224600655375e-01 6.571428690637859393e-02 -1.642857172659465403e-01
-3.842857224600655375e-01 6.571428690637859393e-02 -1.314285738127572156e-01
-3.842857224600655375e-01 6.571428690637859393e-02 -9.857143035956791866e-02
-3.842857224600655375e-01 6.571428690637859393e-02 -6.571428690637862169e-02
-3.842857224600655375e-01 6.571428690637859393e-02 -3.285714345318929697e-02
-3.842857224600655375e-01 6.571428690637859393e-02 0.000000000000000000e+00
-3.842857224600655375e-01 6.571428690637859393e-02 3.285714345318929697e-02
-3.842857224600655375e-01 6.571428690637859393e-02 6.571428690637859393e-02
-3.842857224600655375e-01 6.571428690637859393e-02 9.857143035956789090e-02
-3.842857224600655375e-01 6.571428690637859393e-02 1.314285738127571879e-01
-3.842857224600655375e-01 6.571428690637859393e-02 1.642857172659465403e-01
-3.842857224600655375e-01 6.571428690637859393e-02 1.971428607191358373e-01
-2.882142918450491531e-01 6.571428690637859393e-02 -2.300000041723251343e-01
-2.882142918450491531e-01 6.571428690637859393e-02 -1.971428607191358373e-01
-2.882142918450491531e-01 6.571428690637859393e-02 -1.642857172659465403e-01
-2.882142918450491531e-01 6.571428690637859393e-02 -1.314285738127572156e-01
-2.882142918450491531e-01 6.571428690637859393e-02 -9.857143035956791866e-02
-2.882142918450491531e-01 6.571428690637859393e-02 -6.571428690637862169e-02
-2.882142918450491531e-01 6.571428690637859393e-02 -3.285714345318929697e-02
-2.882142918450491531e-01 6.571428690637859393e-02 0.000000000000000000e+00
-2.882142918450491531e-01 6.571428690637859393e-02 3.285714345318929697e-02
-2.882142918450491531e-01 6.571428690637859393e-02 6.571428690637859393e-02
-2.882142918450491531e-01 6.571428690637859393e-02 9.857143035956789090e-02
-2.882142918450491531e-01 6.571428690637859393e-02 1.314285738127571879e-01
-2.882142918450491531e-01 6.571428690637859393e-02 1.642857172659465403e-01
-2.882142918450491531e-01 6.571428690637859393e-02 1.971428607191358373e-01
-2.882142918450491531e-01 6.571428690637859393e-02 2.300000041723251343e-01
-1.921428612300327687e-01 6.571428690637859393e-02 -1.971428607191358373e-01
-1.921428612300327687e-01 6.571428690637859393e-02 -1.642857172659465403e-01
-1.921428612300327687e-01 6.571428690637859393e-02 -1.314285738127572156e-01
-1.921428612300327687e-01 6.571428690637859393e-02 -9.857143035956791866e-02
-1.921428612300327687e-01 6.571428690637859393e-02 -6.571428690637862169e-02
-1.921428612300327687e-01 6.571428690637859393e-02 -3.285714345318929697e-02
-1.921428612300327687e-01 6.571428690637859393e-02 0.000000000000000000e+00
-1.921428612300327687e-01 6.571428690637859393e-02 3.285714345318929697e-02
-1.921428612300327687e-01 6.571428690637859393e-02 6.571428690637859393e-02
-1.921428612300327687e-01 6.571428690637859393e-02 9.857143035956789090e-02
-1.921428612300327687e-01 6.571428690637859393e-02 1.314285738127571879e-01
-1.921428612300327687e-01 6.571428690637859393e-02 1.642857172659465403e-01
-1.921428612300327687e-01 6.571428690637859393e-02 1.971428607191358373e-01
-9.607143061501632886e-02 6.571428690637859393e-02 -2.300000041723251343e-01
-9.607143061501632886e-02 6.571428690637859393e-02 -1.971428607191358373e-01
-9.607143061501632886e-02 6.571428690637859393e-02 -1.642857172659465403e-01
-9.607143061501632886e-02 6.571428690637859393e-02 -1.314285738127572156e-01
-9.607143061501632886e-02 6.571428690637859393e-02 -9.857143035956791866e-02
-9.607143061501632886e-02 6.571428690637859393e-02 -6.571428690637862169e-02
-9.607143061501632886e-02 6.571428690637859393e-02 -3.285714345318929697e-02
-9.607143061501632886e-02 6.571428690637859393e-02 0.000000000000000000e+00
-9.607143061501632886e-02 6.571428690637859393e-02 3.285714345318929697e-02
-9.607143061501632886e-02 6.571428690637859393e-02 6.571428690637859393e-02
-9.607143061501632886e-02 6.571428690637859393e-02 9.857143035956789090e-02
-9.607143061501632886e-02 6.571428690637859393e-02 1.314285738127571879e-01
-9.607143061501632886e-02 6.571428690637859393e-02 1.642857172659465403e-01
-9.607143061501632886e-02 6.571428690637859393e-02 1.971428607191358373e-01
-9.607143061501632886e-02 6.571428690637859393e-02 2.300000041723251343e-01
0.000000000000000000e+00 6.571428690637859393e-02 -2.300000041723251343e-01
0.000000000000000000e+00 6.571428690637859393e-02 -1.971428607191358373e-01
0.000000000000000000e+00 6.571428690637859393e-02 -1.642857172659465403e-01
0.000000000000000000e+00 6.571428690637859393e-02 -1.314285738127572156e-01
0.000000000000000000e+00 6.571428690637859393e-02 -9.857143035956791866e-02
0.000000000000000000e+00 6.571428690637859393e-02 -6.571428690637862169e-02
0.000000000000000000e+00 6.571428690637859393e-02 -3.285714345318929697e-02
0.000000000000000000e+00 6.571428690637859393e-02 0.000000000000000000e+00
0.000000000000000000e+00 6.571428690637859393e-02 3.285714345318929697e-02
0.000000000000000000e+00 6.571428690637859393e-02 6.571428690637859393e-02
0.000000000000000000e+00 6.571428690637859393e-02 9.857143035956789090e-02
0.000000000000000000e+00 6.571428690637859393e-02 1.314285738127571879e-01
0.000000000000000000e+00 6.571428690637859393e-02 1.642857172659465403e-01
0.000000000000000000e+00 6.571428690637859393e-02 1.971428607191358373e-01
0.000000000000000000e+00 6.571428690637859393e-02 2.300000041723251343e-01
9.607143061501643988e-02 6.571428690637859393e-02 -2.300000041723251343e-01
9.607143061501643988e-02 6.571428690637859393e-02 -1.971428607191358373e-01
9.607143061501643988e-02 6.571428690637859393e-02 -1.642857172659465403e-01
9.607143061501643988e-02 6.571428690637859393e-02 -1.314285738127572156e-01
9.607143061501643988e-02 6.571428690637859393e-02 -9.857143035956791866e-02
9.607143061501643988e-02 6.571428690637859393e-02 -6.571428690637862169e-02
9.607143061501643988e-02 6.571428690637859393e-02 -3.285714345318929697e-02
9.607143061501643988e-02 6.571428690637859393e-02 0.000000000000000000e+00
9.607143061501643988e-02 6.571428690637859393e-02 3.285714345318929697e-02
9.607143061501643988e-02 6.571428690637859393e-02 6.571428690637859393e-02
9.607143061501643988e-02 6.571428690637859393e-02 9.857143035956789090e-02
9.607143061501643988e-02 6.571428690637859393e-02 1.314285738127571879e-01
9.607143061501643988e-02 6.571428690637859393e-02 1.642857172659465403e-01
9.607143061501643988e-02 6.571428690637859393e-02 1.971428607191358373e-01
9.607143061501643988e-02 6.571428690637859393e-02 2.300000041723251343e-01
1.921428612300328798e-01 6.571428690637859393e-02 -2.300000041723251343e-01
1.921428612300328798e-01 6.571428690637859393e-02 -1.971428607191358373e-01
1.921428612300328798e-01 6.571428690637859393e-02 -1.642857172659465403e-01
1.921428612300328798e-01 6.571428690637859393e-02 -1.314285738127572156e-01
1.921428612300328798e-01 6.571428690637859393e-02 -9.857143035956791866e-02
1.921428612300328798e-01 6.571428690637859393e-02 -6.571428690637862169e-02
1.921428612300328798e-01 6.571428690637859393e-02 -3.285714345318929697e-02
1.921428612300328798e-01 6.571428690637859393e-02 0.000000000000000000e+00
1.921428612300328798e-01 6.571428690637859393e-02 3.285714345318929697e-02
1.921428612300328798e-01 6.571428690637859393e-02 6.571428690637859393e-02
1.921428612300328798e-01 6.571428690637859393e-02 9.857143035956789090e-02
1.921428612300328798e-01 6.571428690637859393e-02 1.314285738127571879e-01
1.921428612300328798e-01 6.571428690637859393e-02 1.642857172659465403e-01
1.921428612300328798e-01 6.571428690637859393e-02 1.971428607191358373e-01
1.921428612300328798e-01 6.571428690637859393e-02 2.300000041723251343e-01
2.882142918450492086e-01 6.571428690637859393e-02 -2.300000041723251343e-01
2.882142918450492086e-01 6.571428690637859393e-02 -1.971428607191358373e-01
2.882142918450492086e-01 6.571428690637859393e-02 -1.642857172659465403e-01
2.882142918450492086e-01 6.571428690637859393e-02 -1.314285738127572156e-01
2.882142918450492086e-01 6.571428690637859393e-02 -9.857143035956791866e-02
2.882142918450492086e-01 6.571428690637859393e-02 -6.571428690637862169e-02
2.882142918450492086e-01 6.571428690637859393e-02 -3.285714345318929697e-02
2.882142918450492086e-01 6.571428690637859393e-02 0.000000000000000000e+00
2.882142918450492086e-01 6.571428690637859393e-02 3.285714345318929697e-02
2.882142918450492086e-01 6.571428690637859393e-02 6.571428690637859393e-02
2.882142918450492086e-01 6.571428690637859393e-02 9.857143035956789090e-02
2.882142918450492086e-01 6.571428690637859393e-02 1.314285738127571879e-01
2.882142918450492086e-01 6.571428690637859393e-02 1.642857172659465403e-01
2.882142918450492086e-01 6.571428690637859393e-02 1.971428607191358373e-01
2.882142918450492086e-01 6.571428690637859393e-02 2.300000041723251343e-01
3.842857224600655375e-01 6.571428690637859393e-02 -1.971428607191358373e-01
3.842857224600655375e-01 6.571428690637859393e-02 -1.642857172659465403e-01
3.842857224600655375e-01 6.571428690637859393e-02 -1.314285738127572156e-01
3.842857224600655375e-01 6.571428690637859393e-02 -9.857143035956791866e-02
3.842857224600655375e-01 6.571428690637859393e-02 -6.571428690637862169e-02
3.842857224600655375e-01 6.571428690637859393e-02 -3.285714345318929697e-02
3.842857224600655375e-01 6.571428690637859393e-02 0.000000000000000000e+00
3.842857224600655375e-01 6.571428690637859393e-02 3.285714345318929697e-02
3.842857224600655375e-01 6.571428690637859393e-02 6.571428690637859393e-02
3.842857224600655375e-01 6.571428690637859393e-02 9.857143035956789090e-02
3.842857224600655375e-01 6.571428690637859393e-02 1.314285738127571879e-01
3.842857224600655375e-01 6.571428690637859393e-02 1.642857172659465403e-01
3.842857224600655375e-01 6.571428690637859393e-02 1.971428607191358373e-01
4.803571530750820884e-01 6.571428690637859393e-02 -1.971428607191358373e-01
4.803571530750820884e-01 6.571428690637859393e-02 -1.642857172659465403e-01
4.803571530750820884e-01 6.571428690637859393e-02 -1.314285738127572156e-01
4.803571530750820884e-01 6.571428690637859393e-02 -9.857143035956791866e-02
4.803571530750820884e-01 6.571428690637859393e-02 -6.571428690637862169e-02
4.803571530750820884e-01 6.571428690637859393e-02 -3.285714345318929697e-02
4.803571530750820884e-01 6.571428690637859393e-02 0.000000000000000000e+00
4.803571530750820884e-01 6.571428690637859393e-02 3.285714345318929697e-02
4.803571530750820884e-01 6.571428690637859393e-02 6.571428690637859393e-02
4.803571530750820884e-01 6.571428690637859393e-02 9.857143035956789090e-02
4.803571530750820884e-01 6.571428690637859393e-02 1.314285738127571879e-01
4.803571530750820884e-01 6.571428690637859393e-02 1.642857172659465403e-01
4.803571530750820884e-01 6.571428690637859393e-02 1.971428607191358373e-01
5.764285836900984172e-01 6.571428690637859393e-02 -1.971428607191358373e-01
5.764285836900984172e-01 6.571428690637859393e-02 -1.642857172659465403e-01
5.764285836900984172e-01 6.571428690637859393e-02 -1.314285738127572156e-01
5.764285836900984172e-01 6.571428690637859393e-02 -9.857143035956791866e-02
5.764285836900984172e-01 6.571428690637859393e-02 -6.571428690637862169e-02
5.764285836900984172e-01 6.571428690637859393e-02 -3.285714345318929697e-02
5.764285836900984172e-01 6.571428690637859393e-02 0.000000000000000000e+00
5.764285836900984172e-01 6.571428690637859393e-02 3.285714345318929697e-02
5.764285836900984172e-01 6.571428690637859393e-02 6.571428690637859393e-02
5.764285836900984172e-01 6.571428690637859393e-02 9.857143035956789090e-02
5.764285836900984172e-01 6.571428690637859393e-02 1.314285738127571879e-01
5.764285836900984172e-01 6.571428690637859393e-02 1.642857172659465403e-01
5.764285836900984172e-01 6.571428690637859393e-02 1.971428607191358373e-01
6.725000143051147461e-01 6.571428690637859393e-02 -1.971428607191358373e-01
6.725000143051147461e-01 6.571428690637859393e-02 -1.642857172659465403e-01
6.725000143051147461e-01 6.571428690637859393e-02 -1.314285738127572156e-01
6.725000143051147461e-01 6.571428690637859393e-02 -9.857143035956791866e-02
6.725000143051147461e-01 6.571428690637859393e-02 -6.571428690637862169e-02
6.725000143051147461e-01 6.571428690637859393e-02 3.285714345318929697e-02
6.725000143051147461e-01 6.571428690637859393e-02 9.857143035956789090e-02
-6.725000143051147461e-01 9.857143035956789090e-02 -1.314285738127572156e-01
-6.725000143051147461e-01 9.857143035956789090e-02 -9.857143035956791866e-02
-6.725000143051147461e-01 9.857143035956789090e-02 -6.571428690637862169e-02
-6.725000143051147461e-01 9.857143035956789090e-02 -3.285714345318929697e-02
-6.725000143051147461e-01 9.857143035956789090e-02 0.000000000000000000e+00
-6.725000143051147461e-01 9.857143035956789090e-02 3.285714345318929697e-02
-6.725000143051147461e-01 9.857143035956789090e-02 6.571428690637859393e-02
-6.725000143051147461e-01 9.857143035956789090e-02 9.857143035956789090e-02
-6.725000143051147461e-01 9.857143035956789090e-02 1.642857172659465403e-01
-5.764285836900983062e-01 9.857143035956789090e-02 -1.971428607191358373e-01
-5.764285836900983062e-01 9.857143035956789090e-02 -1.642857172659465403e-01
-5.764285836900983062e-01 9.857143035956789090e-02 -1.314285738127572156e-01
-5.764285836900983062e-01 9.857143035956789090e-02 -9.857143035956791866e-02
-5.764285836900983062e-01 9.857143035956789090e-02 -6.571428690637862169e-02
-5.764285836900983062e-01 9.857143035956789090e-02 -3.285714345318929697e-02
-5.764285836900983062e-01 9.857143035956789090e-02 0.000000000000000000e+00
-5.764285836900983062e-01 9.857143035956789090e-02 3.285714345318929697e-02
-5.764285836900983062e-01 9.857143035956789090e-02 6.571428690637859393e-02
-5.764285836900983062e-01 9.857143035956789090e-02 9.857143035956789090e-02
-5.764285836900983062e-01 9.857143035956789090e-02 1.314285738127571879e-01
-5.764285836900983062e-01 9.857143035956789090e-02 1.642857172659465403e-01
-5.764285836900983062e-01 9.857143035956789090e-02 1.971428607191358373e-01
-4.803571530750819774e-01 9.857143035956789090e-02 -1.971428607191358373e-01
-4.803571530750819774e-01 9.857143035956789090e-02 -1.642857172659465403e-01
-4.803571530750819774e-01 9.857143035956789090e-02 -1.314285738127572156e-01
-4.803571530750819774e-01 9.857143035956789090e-02 -9.857143035956791866e-02
-4.803571530750819774e-01 9.857143035956789090e-02 -6.571428690637862169e-02
-4.803571530750819774e-01 9.857143035956789090e-02 -3.285714345318929697e-02
-4.803571530750819774e-01 9.857143035956789090e-02 0.000000000000000000e+00
-4.803571530750819774e-01 9.857143035956789090e-02 3.285714345318929697e-02
-4.803571530750819774e-01 9.857143035956789090e-02 6.571428690637859393e-02
-4.803571530750819774e-01 9.857143035956789090e-02 9.857143035956789090e-02
-4.803571530750819774e-01 9.857143035956789090e-02 1.314285738127571879e-01
-4.803571530750819774e-01 9.857143035956789090e-02 1.642857172659465403e-01
-4.803571530750819774e-01 9.857143035956789090e-02 1.971428607191358373e-01
-3.842857224600655375e-01 9.857143035956789090e-02 -1.971428607191358373e-01
-3.842857224600655375e-01 9.857143035956789090e-02 -1.642857172659465403e-01
-3.842857224600655375e-01 9.857143035956789090e-02 -1.314285738127572156e-01
-3.842857224600655375e-01 9.857143035956789090e-02 -9.857143035956791866e-02
-3.842857224600655375e-01 9.857143035956789090e-02 -6.571428690637862169e-02
-3.842857224600655375e-01 9.857143035956789090e-02 -3.285714345318929697e-02
-3.842857224600655375e-01 9.857143035956789090e-02 0.000000000000000000e+00
-3.842857224600655375e-01 9.857143035956789090e-02 3.285714345318929697e-02
-3.842857224600655375e-01 9.857143035956789090e-02 6.571428690637859393e-02
-3.842857224600655375e-01 9.857143035956789090e-02 9.857143035956789090e-02
-3.842857224600655375e-01 9.857143035956789090e-02 1.314285738127571879e-01
-3.842857224600655375e-01 9.857143035956789090e-02 1.642857172659465403e-01
-3.842857224600655375e-01 9.857143035956789090e-02 1.971428607191358373e-01
-2.882142918450491531e-01 9.857143035956789090e-02 -2.300000041723251343e-01
-2.882142918450491531e-01 9.857143035956789090e-02 -1.971428607191358373e-01
-2.882142918450491531e-01 9.857143035956789090e-02 -1.642857172659465403e-01
-2.882142918450491531e-01 9.857143035956789090e-02 -1.314285738127572156e-01
-2.882142918450491531e-01 9.857143035956789090e-02 -9.857143035956791866e-02
-2.882142918450491531e-01 9.857143035956789090e-02 -6.571428690637862169e-02
-2.882142918450491531e-01 9.857143035956789090e-02 -3.285714345318929697e-02
-2.882142918450491531e-01 9.857143035956789090e-02 0.000000000000000000e+00
-2.882142918450491531e-01 9.857143035956789090e-02 3.285714345318929697e-02
-2.882142918450491531e-01 9.857143035956789090e-02 6.571428690637859393e-02
-2.882142918450491531e-01 9.857143035956789090e-02 9.857143035956789090e-02
-2.882142918450491531e-01 9.857143035956789090e-02 1.314285738127571879e-01
-2.882142918450491531e-01 9.857143035956789090e-02 1.642857172659465403e-01
-2.882142918450491531e-01 9.857143035956789090e-02 1.971428607191358373e-01
-2.882142918450491531e-01 9.857143035956789090e-02 2.300000041723251343e-01
-1.921428612300327687e-01 9.857143035956789090e-02 -2.300000041723251343e-01
-1.921428612300327687e-01 9.857143035956789090e-02 -1.971428607191358373e-01
-1.921428612300327687e-01 9.857143035956789090e-02 -1.642857172659465403e-01
-1.921428612300327687e-01 9.857143035956789090e-02 -1.314285738127572156e-01
-1.921428612300327687e-01 9.857143035956789090e-02 -9.857143035956791866e-02
-1.921428612300327687e-01 9.857143035956789090e-02 -6.571428690637862169e-02
-1.921428612300327687e-01 9.857143035956789090e-02 -3.285714345318929697e-02
-1.921428612300327687e-01 9.857143035956789090e-02 0.000000000000000000e+00
-1.921428612300327687e-01 9.857143035956789090e-02 3.285714345318929697e-02
-1.921428612300327687e-01 9.857143035956789090e-02 6.571428690637859393e-02
-1.921428612300327687e-01 9.857143035956789090e-02 9.857143035956789090e-02
-1.921428612300327687e-01 9.857143035956789090e-02 1.314285738127571879e-01
-1.921428612300327687e-01 9.857143035956789090e-02 1.642857172659465403e-01
-1.921428612300327687e-01 9.857143035956789090e-02 1.971428607191358373e-01
-1.921428612300327687e-01 9.857143035956789090e-02 2.300000041723251343e-01
-9.607143061501632886e-02 9.857143035956789090e-02 -2.300000041723251343e-01
-9.607143061501632886e-02 9.857143035956789090e-02 -1.971428607191358373e-01
-9.607143061501632886e-02 9.857143035956789090e-02 -1.642857172659465403e-01
-9.607143061501632886e-02 9.857143035956789090e-02 -1.314285738127572156e-01
-9.607143061501632886e-02 9.857143035956789090e-02 -9.857143035956791866e-02
-9.607143061501632886e-02 9.857143035956789090e-02 -6.571428690637862169e-02
-9.607143061501632886e-02 9.857143035956789090e-02 -3.285714345318929697e-02
-9.607143061501632886e-02 9.857143035956789090e-02 0.000000000000000000e+00
-9.607143061501632886e-02 9.857143035956789090e-02 3.285714345318929697e-02
-9.607143061501632886e-02 9.857143035956789090e-02 6.571428690637859393e-02
-9.607143061501632886e-02 9.857143035956789090e-02 9.857143035956789090e-02
-9.607143061501632886e-02 9.857143035956789090e-02 1.314285738127571879e-01
-9.607143061501632886e-02 9.857143035956789090e-02 1.642857172659465403e-01
-9.607143061501632886e-02 9.857143035956789090e-02 1.971428607191358373e-01
-9.607143061501632886e-02 9.857143035956789090e-02 2.300000041723251343e-01
0.000000000000000000e+00 9.857143035956789090e-02 -2.300000041723251343e-01
0.000000000000000000e+00 9.857143035956789090e-02 -1.971428607191358373e-01
0.000000000000000000e+00 9.857143035956789090e-02 -1.642857172659465403e-01
0.000000000000000000e+00 9.857143035956789090e-02 -1.314285738127572156e-01
0.000000000000000000e+00 9.857143035956789090e-02 -9.857143035956791866e-02
0.000000000000000000e+00 9.857143035956789090e-02 -6.571428690637862169e-02
0.000000000000000000e+00 9.857143035956789090e-02 -3.285714345318929697e-02
0.000000000000000000e+00 9.857143035956789090e-02 0.000000000000000000e+00
0.000000000000000000e+00 9.857143035956789090e-02 3.285714345318929697e-02
0.000000000000000000e+00 9.857143035956789090e-02 6.571428690637859393e-02
0.000000000000000000e+00 9.857143035956789090e-02 9.857143035956789090e-02
0.000000000000000000e+00 9.857143035956789090e-02 1.314285738127571879e-01
0.000000000000000000e+00 9.857143035956789090e-02 1.642857172659465403e-01
0.000000000000000000e+00 9.857143035956789090e-02 1.971428607191358373e-01
0.000000000000000000e+00 9.857143035956789090e-02 2.300000041723251343e-01
9.607143061501643988e-02 9.857143035956789090e-02 -2.300000041723251343e-01
9.607143061501643988e-02 9.857143035956789090e-02 -1.971428607191358373e-01
9.607143061501643988e-02 9.857143035956789090e-02 -1.642857172659465403e-01
9.607143061501643988e-02 9.857143035956789090e-02 -1.314285738127572156e-01
9.607143061501643988e-02 9.857143035956789090e-02 -9.857143035956791866e-02
9.607143061501643988e-02 9.857143035956789090e-02 -6.571428690637862169e-02
9.607143061501643988e-02 9.857143035956789090e-02 -3.285714345318929697e-02
9.607143061501643988e-02 9.857143035956789090e-02 0.000000000000000000e+00
9.607143061501643988e-02 9.857143035956789090e-02 3.285714345318929697e-02
9.607143061501643988e-02 9.857143035956789090e-02 6.571428690637859393e-02
9.607143061501643988e-02 9.857143035956789090e-02 9.857143035956789090e-02
9.607143061501643988e-02 9.857143035956789090e-02 1.314285738127571879e-01
9.607143061501643988e-02 9.857143035956789090e-02 1.642857172659465403e-01
9.607143061501643988e-02 9.857143035956789090e-02 1.971428607191358373e-01
9.607143061501643988e-02 9.857143035956789090e-02 2.300000041723251343e-01
1.921428612300328798e-01 9.857143035956789090e-02 -2.300000041723251343e-01
1.921428612300328798e-01 9.857143035956789090e-02 -1.971428607191358373e-01
1.921428612300328798e-01 9.857143035956789090e-02 -1.642857172659465403e-01
1.921428612300328798e-01 9.857143035956789090e-02 -1.314285738127572156e-01
1.921428612300328798e-01 9.857143035956789090e-02 -9.857143035956791866e-02
1.921428612300328798e-01 9.857143035956789090e-02 -6.571428690637862169e-02
1.921428612300328798e-01 9.857143035956789090e-02 -3.285714345318929697e-02
1.921428612300328798e-01 9.857143035956789090e-02 0.000000000000000000e+00
1.921428612300328798e-01 9.857143035956789090e-02 3.285714345318929697e-02
1.921428612300328798e-01 9.857143035956789090e-02 6.571428690637859393e-02
1.921428612300328798e-01 9.857143035956789090e-02 9.857143035956789090e-02
1.921428612300328798e-01 9.857143035956789090e-02 1.314285738127571879e-01
1.921428612300328798e-01 9.857143035956789090e-02 1.642857172659465403e-01
1.921428612300328798e-01 9.857143035956789090e-02 1.971428607191358373e-01
1.921428612300328798e-01 9.857143035956789090e-02 2.300000041723251343e-01
2.882142918450492086e-01 9.857143035956789090e-02 -2.300000041723251343e-01
2.882142918450492086e-01 9.857143035956789090e-02 -1.971428607191358373e-01
2.882142918450492086e-01 9.857143035956789090e-02 -1.642857172659465403e-01
2.882142918450492086e-01 9.857143035956789090e-02 -1.314285738127572156e-01
2.882142918450492086e-01 9.857143035956789090e-02 -9.857143035956791866e-02
2.882142918450492086e-01 9.857143035956789090e-02 -6.571428690637862169e-02
2.882142918450492086e-01 9.857143035956789090e-02 -3.285714345318929697e-02
2.882142918450492086e-01 9.857143035956789090e-02 0.000000000000000000e+00
2.882142918450492086e-01 9.857143035956789090e-02 3.285714345318929697e-02
2.882142918450492086e-01 9.857143035956789090e-02 6.571428690637859393e-02
2.882142918450492086e-01 9.857143035956789090e-02 9.857143035956789090e-02
2.882142918450492086e-01 9.857143035956789090e-02 1.314285738127571879e-01
2.882142918450492086e-01 9.857143035956789090e-02 1.642857172659465403e-01
2.882142918450492086e-01 9.857143035956789090e-02 1.971428607191358373e-01
2.882142918450492086e-01 9.857143035956789090e-02 2.300000041723251343e-01
3.842857224600655375e-01 9.857143035956789090e-02 -2.300000041723251343e-01
3.842857224600655375e-01 9.857143035956789090e-02 -1.971428607191358373e-01
3.842857224600655375e-01 9.857143035956789090e-02 -1.642857172659465403e-01
3.842857224600655375e-01 9.857143035956789090e-02 -1.314285738127572156e-01
3.842857224600655375e-01 9.857143035956789090e-02 -9.857143035956791866e-02
3.842857224600655375e-01 9.857143035956789090e-02 -6.571428690637862169e-02
3.842857224600655375e-01 9.857143035956789090e-02 -3.285714345318929697e-02
3.842857224600655375e-01 9.857143035956789090e-02 0.000000000000000000e+00
3.842857224600655375e-01 9.857143035956789090e-02 3.285714345318929697e-02
3.842857224600655375e-01 9.857143035956789090e-02 6.571428690637859393e-02
3.842857224600655375e-01 9.857143035956789090e-02 9.857143035956789090e-02
3.842857224600655375e-01 9.857143035956789090e-02 1.314285738127571879e-01
3.842857224600655375e-01 9.857143035956789090e-02 1.642857172659465403e-01
3.842857224600655375e-01 9.857143035956789090e-02 1.971428607191358373e-01
3.842857224600655375e-01 9.857143035956789090e-02 2.300000041723251343e-01
4.803571530750820884e-01 9.857143035956789090e-02 -2.300000041723251343e-01
4.803571530750820884e-01 9.857143035956789090e-02 -1.971428607191358373e-01
4.803571530750820884e-01 9.857143035956789090e-02 -1.642857172659465403e-01
4.803571530750820884e-01 9.857143035956789090e-02 -1.314285738127572156e-01
4.803571530750820884e-01 9.857143035956789090e-02 -9.857143035956791866e-02
4.803571530750820884e-01 9.857143035956789090e-02 -6.571428690637862169e-02
4.803571530750820884e-01 9.857143035956789090e-02 -3.285714345318929697e-02
4.803571530750820884e-01 9.857143035956789090e-02 0.000000000000000000e+00
4.803571530750820884e-01 9.857143035956789090e-02 3.285714345318929697e-02
4.803571530750820884e-01 9.857143035956789090e-02 6.571428690637859393e-02
4.803571530750820884e-01 9.857143035956789090e-02 9.857143035956789090e-02
4.803571530750820884e-01 9.857143035956789090e-02 1.314285738127571879e-01
4.803571530750820884e-01 9.857143035956789090e-02 1.642857172659465403e-01
4.803571530750820884e-01 9.857143035956789090e-02 1.971428607191358373e-01
4.803571530750820884e-01 9.857143035956789090e-02 2.300000041723251343e-01
5.764285836900984172e-01 9.857143035956789090e-02 -2.300000041723251343e-01
5.764285836900984172e-01 9.857143035956789090e-02 -1.971428607191358373e-01
5.764285836900984172e-01 9.857143035956789090e-02 -1.642857172659465403e-01
5.764285836900984172e-01 9.857143035956789090e-02 -1.314285738127572156e-01
5.764285836900984172e-01 9.857143035956789090e-02 -9.857143035956791866e-02
5.764285836900984172e-01 9.857143035956789090e-02 -6.571428690637862169e-02
5.764285836900984172e-01 9.857143035956789090e-02 -3.285714345318929697e-02
5.764285836900984172e-01 9.857143035956789090e-02 0.000000000000000000e+00
5.764285836900984172e-01 9.857143035956789090e-02 3.285714345318929697e-02
5.764285836900984172e-01 9.857143035956789090e-02 6.571428690637859393e-02
5.764285836900984172e-01 9.857143035956789090e-02 9.857143035956789090e-02
5.764285836900984172e-01 9.857143035956789090e-02 1.314285738127571879e-01
5.764285836900984172e-01 9.857143035956789090e-02 1.642857172659465403e-01
5.764285836900984172e-01 9.857143035956789090e-02 1.971428607191358373e-01
5.764285836900984172e-01 9.857143035956789090e-02 2.300000041723251343e-01
6.725000143051147461e-01 9.857143035956789090e-02 -1.642857172659465403e-01
6.725000143051147461e-01 9.857143035956789090e-02 -1.314285738127572156e-01
6.725000143051147461e-01 9.857143035956789090e-02 -9.857143035956791866e-02
6.725000143051147461e-01 9.857143035956789090e-02 -6.571428690637862169e-02
6.725000143051147461e-01 9.857143035956789090e-02 -3.285714345318929697e-02
6.725000143051147461e-01 9.857143035956789090e-02 0.000000000000000000e+00
6.725000143051147461e-01 9.857143035956789090e-02 3.285714345318929697e-02
6.725000143051147461e-01 9.857143035956789090e-02 6.571428690637859393e-02
6.725000143051147461e-01 9.857143035956789090e-02 9.857143035956789090e-02
6.725000143051147461e-01 9.857143035956789090e-02 1.642857172659465403e-01
-6.725000143051147461e-01 1.314285738127571879e-01 -1.314285738127572156e-01
-6.725000143051147461e-01 1.314285738127571879e-01 -9.857143035956791866e-02
-6.725000143051147461e-01 1.314285738127571879e-01 -6.571428690637862169e-02
-6.725000143051147461e-01 1.314285738127571879e-01 -3.285714345318929697e-02
-6.725000143051147461e-01 1.314285738127571879e-01 3.285714345318929697e-02
-5.764285836900983062e-01 1.314285738127571879e-01 -1.971428607191358373e-01
-5.764285836900983062e-01 1.314285738127571879e-01 -1.642857172659465403e-01
-5.764285836900983062e-01 1.314285738127571879e-01 -1.314285738127572156e-01
-5.764285836900983062e-01 1.314285738127571879e-01 -9.857143035956791866e-02
-5.764285836900983062e-01 1.314285738127571879e-01 -6.571428690637862169e-02
-5.764285836900983062e-01 1.314285738127571879e-01 -3.285714345318929697e-02
-5.764285836900983062e-01 1.314285738127571879e-01 0.000000000000000000e+00
-5.764285836900983062e-01 1.314285738127571879e-01 3.285714345318929697e-02
-5.764285836900983062e-01 1.314285738127571879e-01 6.571428690637859393e-02
-5.764285836900983062e-01 1.314285738127571879e-01 9.857143035956789090e-02
-5.764285836900983062e-01 1.314285738127571879e-01 1.314285738127571879e-01
-5.764285836900983062e-01 1.314285738127571879e-01 1.642857172659465403e-01
-5.764285836900983062e-01 1.314285738127571879e-01 1.971428607191358373e-01
-4.803571530750819774e-01 1.314285738127571879e-01 -1.971428607191358373e-01
-4.803571530750819774e-01 1.314285738127571879e-01 -1.642857172659465403e-01
-4.803571530750819774e-01 1.314285738127571879e-01 -1.314285738127572156e-01
-4.803571530750819774e-01 1.314285738127571879e-01 -9.857143035956791866e-02
-4.803571530750819774e-01 1.314285738127571879e-01 -6.571428690637862169e-02
-4.803571530750819774e-01 1.314285738127571879e-01 -3.285714345318929697e-02
-4.803571530750819774e-01 1.314285738127571879e-01 0.000000000000000000e+00
-4.803571530750819774e-01 1.314285738127571879e-01 3.285714345318929697e-02
-4.803571530750819774e-01 1.314285738127571879e-01 6.571428690637859393e-02
-4.803571530750819774e-01 1.314285738127571879e-01 9.857143035956789090e-02
-4.803571530750819774e-01 1.314285738127571879e-01 1.314285738127571879e-01
-4.803571530750819774e-01 1.314285738127571879e-01 1.642857172659465403e-01
-4.803571530750819774e-01 1.314285738127571879e-01 1.971428607191358373e-01
-3.842857224600655375e-01 1.314285738127571879e-01 -1.971428607191358373e-01
-3.842857224600655375e-01 1.314285738127571879e-01 -1.642857172659465403e-01
-3.842857224600655375e-01 1.314285738127571879e-01 -1.314285738127572156e-01
-3.842857224600655375e-01 1.314285738127571879e-01 -9.857143035956791866e-02
-3.842857224600655375e-01 1.314285738127571879e-01 -6.571428690637862169e-02
-3.842857224600655375e-01 1.314285738127571879e-01 -3.285714345318929697e-02
-3.842857224600655375e-01 1.314285738127571879e-01 0.000000000000000000e+00
-3.842857224600655375e-01 1.314285738127571879e-01 3.285714345318929697e-02
-3.842857224600655375e-01 1.314285738127571879e-01 6.571428690637859393e-02
-3.842857224600655375e-01 1.314285738127571879e-01 9.857143035956789090e-02
-3.842857224600655375e-01 1.314285738127571879e-01 1.314285738127571879e-01
-3.842857224600655375e-01 1.314285738127571879e-01 1.642857172659465403e-01
-3.842857224600655375e-01 1.314285738127571879e-01 1.971428607191358373e-01
-2.882142918450491531e-01 1.314285738127571879e-01 -2.300000041723251343e-01
-2.882142918450491531e-01 1.314285738127571879e-01 -1.971428607191358373e-01
-2.882142918450491531e-01 1.314285738127571879e-01 -1.642857172659465403e-01
-2.882142918450491531e-01 1.314285738127571879e-01 -1.314285738127572156e-01
-2.882142918450491531e-01 1.314285738127571879e-01 -9.857143035956791866e-02
-2.882142918450491531e-01 1.314285738127571879e-01 -6.571428690637862169e-02
-2.882142918450491531e-01 1.314285738127571879e-01 -3.285714345318929697e-02
-2.882142918450491531e-01 1.314285738127571879e-01 0.000000000000000000e+00
-2.882142918450491531e-01 1.314285738127571879e-01 3.285714345318929697e-02
-2.882142918450491531e-01 1.314285738127571879e-01 6.571428690637859393e-02
-2.882142918450491531e-01 1.314285738127571879e-01 9.857143035956789090e-02
-2.882142918450491531e-01 1.314285738127571879e-01 1.314285738127571879e-01
-2.882142918450491531e-01 1.314285738127571879e-01 1.642857172659465403e-01
-2.882142918450491531e-01 1.314285738127571879e-01 1.971428607191358373e-01
-2.882142918450491531e-01 1.314285738127571879e-01 2.300000041723251343e-01
-1.921428612300327687e-01 1.314285738127571879e-01 -2.300000041723251343e-01
-1.921428612300327687e-01 1.314285738127571879e-01 -1.971428607191358373e-01
-1.921428612300327687e-01 1.314285738127571879e-01 -1.642857172659465403e-01
-1.921428612300327687e-01 1.314285738127571879e-01 -1.314285738127572156e-01
-1.921428612300327687e-01 1.314285738127571879e-01 -9.857143035956791866e-02
-1.921428612300327687e-01 1.314285738127571879e-01 -6.571428690637862169e-02
-1.921428612300327687e-01 1.314285738127571879e-01 -3.285714345318929697e-02
-1.921428612300327687e-01 1.314285738127571879e-01 0.000000000000000000e+00
-1.921428612300327687e-01 1.314285738127571879e-01 3.285714345318929697e-02
-1.921428612300327687e-01 1.314285738127571879e-01 6.571428690637859393e-02
-1.921428612300327687e-01 1.314285738127571879e-01 9.857143035956789090e-02
-1.921428612300327687e-01 1.314285738127571879e-01 1.314285738127571879e-01
-1.921428612300327687e-01 1.314285738127571879e-01 1.642857172659465403e-01
-1.921428612300327687e-01 1.314285738127571879e-01 1.971428607191358373e-01
-1.921428612300327687e-01 1.314285738127571879e-01 2.300000041723251343e-01
-9.607143061501632886e-02 1.314285738127571879e-01 -2.300000041723251343e-01
-9.607143061501632886e-02 1.314285738127571879e-01 -1.971428607191358373e-01
-9.607143061501632886e-02 1.314285738127571879e-01 -1.642857172659465403e-01
-9.607143061501632886e-02 1.314285738127571879e-01 -1.314285738127572156e-01
-9.607143061501632886e-02 1.314285738127571879e-01 -9.857143035956791866e-02
-9.607143061501632886e-02 1.314285738127571879e-01 -6.571428690637862169e-02
-9.607143061501632886e-02 1.314285738127571879e-01 -3.285714345318929697e-02
-9.607143061501632886e-02 1.314285738127571879e-01 0.000000000000000000e+00
-9.607143061501632886e-02 1.314285738127571879e-01 3.285714345318929697e-02
-9.607143061501632886e-02 1.314285738127571879e-01 6.571428690637859393e-02
-9.607143061501632886e-02 1.314285738127571879e-01 9.857143035956789090e-02
-9.607143061501632886e-02 1.314285738127571879e-01 1.314285738127571879e-01
-9.607143061501632886e-02 1.314285738127571879e-01 1.642857172659465403e-01
-9.607143061501632886e-02 1.314285738127571879e-01 1.971428607191358373e-01
-9.607143061501632886e-02 1.314285738127571879e-01 2.300000041723251343e-01
0.000000000000000000e+00 1.314285738127571879e-01 -2.300000041723251343e-01
0.000000000000000000e+00 1.314285738127571879e-01 -1.971428607191358373e-01
0.000000000000000000e+00 1.314285738127571879e-01 -1.642857172659465403e-01
0.000000000000000000e+00 1.314285738127571879e-01 -1.314285738127572156e-01
0.000000000000000000e+00 1.314285738127571879e-01 -9.857143035956791866e-02
0.000000000000000000e+00 1.314285738127571879e-01 -6.571428690637862169e-02
0.000000000000000000e+00 1.314285738127571879e-01 -3.285714345318929697e-02
0.000000000000000000e+00 1.314285738127571879e-01 0.000000000000000000e+00
0.000000000000000000e+00 1.314285738127571879e-01 3.285714345318929697e-02
0.000000000000000000e+00 1.314285738127571879e-01 6.571428690637859393e-02
0.000000000000000000e+00 1.314285738127571879e-01 9.857143035956789090e-02
0.000000000000000000e+00 1.314285738127571879e-01 1.314285738127571879e-01
0.000000000000000000e+00 1.314285738127571879e-01 1.642857172659465403e-01
0.000000000000000000e+00 1.314285738127571879e-01 1.971428607191358373e-01
0.000000000000000000e+00 1.314285738127571879e-01 2.300000041723251343e-01
9.607143061501643988e-02 1.314285738127571879e-01 -2.300000041723251343e-01
9.607143061501643988e-02 1.314285738127571879e-01 -1.971428607191358373e-01
9.607143061501643988e-02 1.314285738127571879e-01 -1.642857172659465403e-01
9.607143061501643988e-02 1.314285738127571879e-01 -1.314285738127572156e-01
9.607143061501643988e-02 1.314285738127571879e-01 -9.857143035956791866e-02
9.607143061501643988e-02 1.314285738127571879e-01 -6.571428690637862169e-02
9.607143061501643988e-02 1.314285738127571879e-01 -3.285714345318929697e-02
9.607143061501643988e-02 1.314285738127571879e-01 0.000000000000000000e+00
9.607143061501643988e-02 1.314285738127571879e-01 3.285714345318929697e-02
9.607143061501643988e-02 1.314285738127571879e-01 6.571428690637859393e-02
9.607143061501643988e-02 1.314285738127571879e-01 9.857143035956789090e-02
9.607143061501643988e-02 1.314285738127571879e-01 1.314285738127571879e-01
9.607143061501643988e-02 1.314285738127571879e-01 1.642857172659465403e-01
9.607143061501643988e-02 1.314285738127571879e-01 1.971428607191358373e-01
9.607143061501643988e-02 1.314285738127571879e-01 2.300000041723251343e-01
1.921428612300328798e-01 1.314285738127571879e-01 -2.300000041723251343e-01
1.921428612300328798e-01 1.314285738127571879e-01 -1.971428607191358373e-01
1.921428612300328798e-01 1.314285738127571879e-01 -1.642857172659465403e-01
1.921428612300328798e-01 1.314285738127571879e-01 -1.314285738127572156e-01
1.921428612300328798e-01 1.314285738127571879e-01 -9.857143035956791866e-02
1.921428612300328798e-01 1.314285738127571879e-01 -6.571428690637862169e-02
1.921428612300328798e-01 1.314285738127571879e-01 -3.285714345318929697e-02
1.921428612300328798e-01 1.314285738127571879e-01 0.000000000000000000e+00
1.921428612300328798e-01 1.314285738127571879e-01 3.285714345318929697e-02
1.921428612300328798e-01 1.314285738127571879e-01 6.571428690637859393e-02
1.921428612300328798e-01 1.314285738127571879e-01 9.857143035956789090e-02
1.921428612300328798e-01 1.314285738127571879e-01 1.314285738127571879e-01
1.921428612300328798e-01 1.314285738127571879e-01 1.642857172659465403e-01
1.921428612300328798e-01 1.314285738127571879e-01 1.971428607191358373e-01
1.921428612300328798e-01 1.314285738127571879e-01 2.300000041723251343e-01
2.882142918450492086e-01 1.314285738127571879e-01 -2.300000041723251343e-01
2.882142918450492086e-01 1.314285738127571879e-01 -1.971428607191358373e-01
2.882142918450492086e-01 1.314285738127571879e-01 -1.642857172659465403e-01
2.882142918450492086e-01 1.314285738127571879e-01 -1.314285738127572156e-01
2.882142918450492086e-01 1.314285738127571879e-01 -9.857143035956791866e-02
2.882142918450492086e-01 1.314285738127571879e-01 -6.571428690637862169e-02
2.882142918450492086e-01 1.314285738127571879e-01 -3.285714345318929697e-02
2.882142918450492086e-01 1.314285738127571879e-01 0.000000000000000000e+00
2.882142918450492086e-01 1.314285738127571879e-01 3.285714345318929697e-02
2.882142918450492086e-01 1.314285738127571879e-01 6.571428690637859393e-02
2.882142918450492086e-01 1.314285738127571879e-01 9.857143035956789090e-02
2.882142918450492086e-01 1.314285738127571879e-01 1.314285738127571879e-01
2.882142918450492086e-01 1.314285738127571879e-01 1.642857172659465403e-01
2.882142918450492086e-01 1.314285738127571879e-01 1.971428607191358373e-01
2.882142918450492086e-01 1.314285738127571879e-01 2.300000041723251343e-01
3.842857224600655375e-01 1.314285738127571879e-01 -1.971428607191358373e-01
3.842857224600655375e-01 1.314285738127571879e-01 -1.642857172659465403e-01
3.842857224600655375e-01 1.314285738127571879e-01 -1.314285738127572156e-01
3.842857224600655375e-01 1.314285738127571879e-01 -9.857143035956791866e-02
3.842857224600655375e-01 1.314285738127571879e-01 -6.571428690637862169e-02
3.842857224600655375e-01 1.314285738127571879e-01 -3.285714345318929697e-02
3.842857224600655375e-01 1.314285738127571879e-01 0.000000000000000000e+00
3.842857224600655375e-01 1.314285738127571879e-01 3.285714345318929697e-02
3.842857224600655375e-01 1.314285738127571879e-01 6.571428690637859393e-02
3.842857224600655375e-01 1.314285738127571879e-01 9.857143035956789090e-02
3.842857224600655375e-01 1.314285738127571879e-01 1.314285738127571879e-01
3.842857224600655375e-01 1.314285738127571879e-01 1.642857172659465403e-01
3.842857224600655375e-01 1.314285738127571879e-01 1.971428607191358373e-01
4.803571530750820884e-01 1.314285738127571879e-01 -1.971428607191358373e-01
4.803571530750820884e-01 1.314285738127571879e-01 -1.642857172659465403e-01
4.803571530750820884e-01 1.314285738127571879e-01 -1.314285738127572156e-01
4.803571530750820884e-01 1.314285738127571879e-01 -9.857143035956791866e-02
4.803571530750820884e-01 1.314285738127571879e-01 -6.571428690637862169e-02
4.803571530750820884e-01 1.314285738127571879e-01 -3.285714345318929697e-02
4.803571530750820884e-01 1.314285738127571879e-01 0.000000000000000000e+00
4.803571530750820884e-01 1.314285738127571879e-01 3.285714345318929697e-02
4.803571530750820884e-01 1.314285738127571879e-01 6.571428690637859393e-02
4.803571530750820884e-01 1.314285738127571879e-01 9.857143035956789090e-02
4.803571530750820884e-01 1.314285738127571879e-01 1.314285738127571879e-01
4.803571530750820884e-01 1.314285738127571879e-01 1.642857172659465403e-01
4.803571530750820884e-01 1.314285738127571879e-01 1.971428607191358373e-01
5.764285836900984172e-01 1.314285738127571879e-01 -1.971428607191358373e-01
5.764285836900984172e-01 1.314285738127571879e-01 -1.642857172659465403e-01
5.764285836900984172e-01 1.314285738127571879e-01 -1.314285738127572156e-01
5.764285836900984172e-01 1.314285738127571879e-01 -9.857143035956791866e-02
5.764285836900984172e-01 1.314285738127571879e-01 -6.571428690637862169e-02
5.764285836900984172e-01 1.314285738127571879e-01 -3.285714345318929697e-02
5.764285836900984172e-01 1.314285738127571879e-01 0.000000000000000000e+00
5.764285836900984172e-01 1.314285738127571879e-01 3.285714345318929697e-02
5.764285836900984172e-01 1.314285738127571879e-01 6.571428690637859393e-02
5.764285836900984172e-01 1.314285738127571879e-01 9.857143035956789090e-02
5.764285836900984172e-01 1.314285738127571879e-01 1.314285738127571879e-01
5.764285836900984172e-01 1.314285738127571879e-01 1.642857172659465403e-01
5.764285836900984172e-01 1.314285738127571879e-01 1.971428607191358373e-01
6.725000143051147461e-01 1.314285738127571879e-01 -1.642857172659465403e-01
6.725000143051147461e-01 1.314285738127571879e-01 -1.314285738127572156e-01
6.725000143051147461e-01 1.314285738127571879e-01 -9.857143035956791866e-02
6.725000143051147461e-01 1.314285738127571879e-01 -6.571428690637862169e-02
6.725000143051147461e-01 1.314285738127571879e-01 3.285714345318929697e-02
-6.725000143051147461e-01 1.642857172659465403e-01 -1.971428607191358373e-01
-6.725000143051147461e-01 1.642857172659465403e-01 -1.314285738127572156e-01
-6.725000143051147461e-01 1.642857172659465403e-01 -9.857143035956791866e-02
-6.725000143051147461e-01 1.642857172659465403e-01 -6.571428690637862169e-02
-6.725000143051147461e-01 1.642857172659465403e-01 -3.285714345318929697e-02
-6.725000143051147461e-01 1.642857172659465403e-01 3.285714345318929697e-02
-6.725000143051147461e-01 1.642857172659465403e-01 9.857143035956789090e-02
-5.764285836900983062e-01 1.642857172659465403e-01 -2.300000041723251343e-01
-5.764285836900983062e-01 1.642857172659465403e-01 -1.971428607191358373e-01
-5.764285836900983062e-01 1.642857172659465403e-01 -1.642857172659465403e-01
-5.764285836900983062e-01 1.642857172659465403e-01 -1.314285738127572156e-01
-5.764285836900983062e-01 1.642857172659465403e-01 -9.857143035956791866e-02
-5.764285836900983062e-01 1.642857172659465403e-01 -6.571428690637862169e-02
-5.764285836900983062e-01 1.642857172659465403e-01 -3.285714345318929697e-02
-5.764285836900983062e-01 1.642857172659465403e-01 0.000000000000000000e+00
-5.764285836900983062e-01 1.642857172659465403e-01 3.285714345318929697e-02
-5.764285836900983062e-01 1.642857172659465403e-01 6.571428690637859393e-02
-5.764285836900983062e-01 1.642857172659465403e-01 9.857143035956789090e-02
-5.764285836900983062e-01 1.642857172659465403e-01 1.314285738127571879e-01
-5.764285836900983062e-01 1.642857172659465403e-01 1.642857172659465403e-01
-5.764285836900983062e-01 1.642857172659465403e-01 1.971428607191358373e-01
-5.764285836900983062e-01 1.642857172659465403e-01 2.300000041723251343e-01
-4.803571530750819774e-01 1.642857172659465403e-01 -1.971428607191358373e-01
-4.803571530750819774e-01 1.642857172659465403e-01 -1.642857172659465403e-01
-4.803571530750819774e-01 1.642857172659465403e-01 -1.314285738127572156e-01
-4.803571530750819774e-01 1.642857172659465403e-01 -9.857143035956791866e-02
-4.803571530750819774e-01 1.642857172659465403e-01 -6.571428690637862169e-02
-4.803571530750819774e-01 1.642857172659465403e-01 -3.285714345318929697e-02
-4.803571530750819774e-01 1.642857172659465403e-01 0.000000000000000000e+00
-4.803571530750819774e-01 1.642857172659465403e-01 3.285714345318929697e-02
-4.803571530750819774e-01 1.642857172659465403e-01 6.571428690637859393e-02
-4.803571530750819774e-01 1.642857172659465403e-01 9.857143035956789090e-02
-4.803571530750819774e-01 1.642857172659465403e-01 1.314285738127571879e-01
-4.803571530750819774e-01 1.642857172659465403e-01 1.642857172659465403e-01
-4.803571530750819774e-01 1.642857172659465403e-01 1.971428607191358373e-01
-3.842857224600655375e-01 1.642857172659465403e-01 -2.300000041723251343e-01
-3.842857224600655375e-01 1.642857172659465403e-01 -1.971428607191358373e-01
-3.842857224600655375e-01 1.642857172659465403e-01 -1.642857172659465403e-01
-3.842857224600655375e-01 1.642857172659465403e-01 -1.314285738127572156e-01
-3.842857224600655375e-01 1.642857172659465403e-01 -9.857143035956791866e-02
-3.842857224600655375e-01 1.642857172659465403e-01 -6.571428690637862169e-02
-3.842857224600655375e-01 1.642857172659465403e-01 -3.285714345318929697e-02
-3.842857224600655375e-01 1.642857172659465403e-01 0.000000000000000000e+00
-3.842857224600655375e-01 1.642857172659465403e-01 3.285714345318929697e-02
-3.842857224600655375e-01 1.642857172659465403e-01 6.571428690637859393e-02
-3.842857224600655375e-01 1.642857172659465403e-01 9.857143035956789090e-02
-3.842857224600655375e-01 1.642857172659465403e-01 1.314285738127571879e-01
-3.842857224600655375e-01 1.642857172659465403e-01 1.642857172659465403e-01
-3.842857224600655375e-01 1.642857172659465403e-01 1.971428607191358373e-01
-2.882142918450491531e-01 1.642857172659465403e-01 -2.300000041723251343e-01
-2.882142918450491531e-01 1.642857172659465403e-01 -1.971428607191358373e-01
-2.882142918450491531e-01 1.642857172659465403e-01 -1.642857172659465403e-01
-2.882142918450491531e-01 1.642857172659465403e-01 -1.314285738127572156e-01
