2.444999963045120239e-01 -4.714285901614598262e-02 -1.414285770484379479e-01
2.444999963045120239e-01 -4.714285901614598262e-02 -1.178571475403649427e-01
2.444999963045120239e-01 -4.714285901614598262e-02 -9.428571803229196524e-02
2.444999963045120239e-01 -4.714285901614598262e-02 -7.071428852421897393e-02
2.444999963045120239e-01 -4.714285901614598262e-02 -4.714285901614598262e-02
2.444999963045120239e-01 -4.714285901614598262e-02 -2.357142950807300519e-02
2.444999963045120239e-01 -4.714285901614598262e-02 0.000000000000000000e+00
2.444999963045120239e-01 -4.714285901614598262e-02 2.357142950807297743e-02
2.444999963045120239e-01 -4.714285901614598262e-02 4.714285901614595486e-02
2.444999963045120239e-01 -4.714285901614598262e-02 7.071428852421896005e-02
2.444999963045120239e-01 -4.714285901614598262e-02 9.428571803229196524e-02
2.444999963045120239e-01 -4.714285901614598262e-02 1.178571475403649149e-01
2.444999963045120239e-01 -4.714285901614598262e-02 1.414285770484379201e-01
2.444999963045120239e-01 -4.714285901614598262e-02 1.650000065565109253e-01
-2.444999963045120239e-01 -2.357142950807300519e-02 -9.428571803229196524e-02
-2.444999963045120239e-01 -2.357142950807300519e-02 -4.714285901614598262e-02
-2.444999963045120239e-01 -2.357142950807300519e-02 2.357142950807297743e-02
-2.444999963045120239e-01 -2.357142950807300519e-02 4.714285901614595486e-02
-2.444999963045120239e-01 -2.357142950807300519e-02 7.071428852421896005e-02
-2.444999963045120239e-01 -2.357142950807300519e-02 9.428571803229196524e-02
-2.444999963045120239e-01 -2.357142950807300519e-02 1.178571475403649149e-01
-2.095714254038674451e-01 -2.357142950807300519e-02 -1.414285770484379479e-01
-2.095714254038674451e-01 -2.357142950807300519e-02 -1.178571475403649427e-01
-2.095714254038674451e-01 -2.357142950807300519e-02 -9.428571803229196524e-02
-2.095714254038674451e-01 -2.357142950807300519e-02 -7.071428852421897393e-02
-2.095714254038674451e-01 -2.357142950807300519e-02 -4.714285901614598262e-02
-2.095714254038674451e-01 -2.357142950807300519e-02 -2.357142950807300519e-02
-2.095714254038674451e-01 -2.357142950807300519e-02 0.000000000000000000e+00
-2.095714254038674451e-01 -2.357142950807300519e-02 2.357142950807297743e-02
-2.095714254038674451e-01 -2.357142950807300519e-02 4.714285901614595486e-02
-2.095714254038674451e-01 -2.357142950807300519e-02 7.071428852421896005e-02
-2.095714254038674451e-01 -2.357142950807300519e-02 9.428571803229196524e-02
-2.095714254038674451e-01 -2.357142950807300519e-02 1.178571475403649149e-01
-2.095714254038674451e-01 -2.357142950807300519e-02 1.414285770484379201e-01
-2.095714254038674451e-01 -2.357142950807300519e-02 1.650000065565109253e-01
-1.746428545032228663e-01 -2.357142950807300519e-02 -1.414285770484379479e-01
-1.746428545032228663e-01 -2.357142950807300519e-02 -1.178571475403649427e-01
-1.746428545032228663e-01 -2.357142950807300519e-02 -9.428571803229196524e-02
-1.746428545032228663e-01 -2.357142950807300519e-02 -7.071428852421897393e-02
-1.746428545032228663e-01 -2.357142950807300519e-02 -4.714285901614598262e-02
-1.746428545032228663e-01 -2.357142950807300519e-02 -2.357142950807300519e-02
-1.746428545032228663e-01 -2.357142950807300519e-02 0.000000000000000000e+00
-1.746428545032228663e-01 -2.357142950807300519e-02 2.357142950807297743e-02
-1.746428545032228663e-01 -2.357142950807300519e-02 4.714285901614595486e-02
-1.746428545032228663e-01 -2.357142950807300519e-02 7.071428852421896005e-02
-1.746428545032228663e-01 -2.357142950807300519e-02 9.428571803229196524e-02
-1.746428545032228663e-01 -2.357142950807300519e-02 1.178571475403649149e-01
-1.746428545032228663e-01 -2.357142950807300519e-02 1.414285770484379201e-01
-1.397142836025783152e-01 -2.357142950807300519e-02 -1.414285770484379479e-01
-1.397142836025783152e-01 -2.357142950807300519e-02 -1.178571475403649427e-01
-1.397142836025783152e-01 -2.357142950807300519e-02 -9.428571803229196524e-02
-1.397142836025783152e-01 -2.357142950807300519e-02 -7.071428852421897393e-02
-1.397142836025783152e-01 -2.357142950807300519e-02 -4.714285901614598262e-02
-1.397142836025783152e-01 -2.357142950807300519e-02 -2.357142950807300519e-02
-1.397142836025783152e-01 -2.357142950807300519e-02 0.000000000000000000e+00
-1.397142836025783152e-01 -2.357142950807300519e-02 2.357142950807297743e-02
-1.397142836025783152e-01 -2.357142950807300519e-02 4.714285901614595486e-02
-1.397142836025783152e-01 -2.357142950807300519e-02 7.071428852421896005e-02
-1.397142836025783152e-01 -2.357142950807300519e-02 9.428571803229196524e-02
-1.397142836025783152e-01 -2.357142950807300519e-02 1.178571475403649149e-01
-1.397142836025783152e-01 -2.357142950807300519e-02 1.414285770484379201e-01
-1.047857127019337364e-01 -2.357142950807300519e-02 -1.650000065565109253e-01
-1.047857127019337364e-01 -2.357142950807300519e-02 -1.414285770484379479e-01
-1.047857127019337364e-01 -2.357142950807300519e-02 -1.178571475403649427e-01
-1.047857127019337364e-01 -2.357142950807300519e-02 -9.428571803229196524e-02
-1.047857127019337364e-01 -2.357142950807300519e-02 -7.071428852421897393e-02
-1.047857127019337364e-01 -2.357142950807300519e-02 -4.714285901614598262e-02
-1.047857127019337364e-01 -2.357142950807300519e-02 -2.357142950807300519e-02
-1.047857127019337364e-01 -2.357142950807300519e-02 0.000000000000000000e+00
-1.047857127019337364e-01 -2.357142950807300519e-02 2.357142950807297743e-02
-1.047857127019337364e-01 -2.357142950807300519e-02 4.714285901614595486e-02
-1.047857127019337364e-01 -2.357142950807300519e-02 7.071428852421896005e-02
-1.047857127019337364e-01 -2.357142950807300519e-02 9.428571803229196524e-02
-1.047857127019337364e-01 -2.357142950807300519e-02 1.178571475403649149e-01
-1.047857127019337364e-01 -2.357142950807300519e-02 1.414285770484379201e-01
-1.047857127019337364e-01 -2.357142950807300519e-02 1.650000065565109253e-01
-6.985714180128915762e-02 -2.357142950807300519e-02 -1.414285770484379479e-01
-6.985714180128915762e-02 -2.357142950807300519e-02 -1.178571475403649427e-01
-6.985714180128915762e-02 -2.357142950807300519e-02 -9.428571803229196524e-02
-6.985714180128915762e-02 -2.357142950807300519e-02 -7.071428852421897393e-02
-6.985714180128915762e-02 -2.357142950807300519e-02 -4.714285901614598262e-02
-6.985714180128915762e-02 -2.357142950807300519e-02 -2.357142950807300519e-02
-6.985714180128915762e-02 -2.357142950807300519e-02 0.000000000000000000e+00
-6.985714180128915762e-02 -2.357142950807300519e-02 2.357142950807297743e-02
-6.985714180128915762e-02 -2.357142950807300519e-02 4.714285901614595486e-02
-6.985714180128915762e-02 -2.357142950807300519e-02 7.071428852421896005e-02
-6.985714180128915762e-02 -2.357142950807300519e-02 9.428571803229196524e-02
-6.985714180128915762e-02 -2.357142950807300519e-02 1.178571475403649149e-01
-6.985714180128915762e-02 -2.357142950807300519e-02 1.414285770484379201e-01
-3.492857090064460657e-02 -2.357142950807300519e-02 -1.414285770484379479e-01
-3.492857090064460657e-02 -2.357142950807300519e-02 -1.178571475403649427e-01
-3.492857090064460657e-02 -2.357142950807300519e-02 -9.428571803229196524e-02
-3.492857090064460657e-02 -2.357142950807300519e-02 -7.071428852421897393e-02
-3.492857090064460657e-02 -2.357142950807300519e-02 -4.714285901614598262e-02
-3.492857090064460657e-02 -2.357142950807300519e-02 -2.357142950807300519e-02
-3.492857090064460657e-02 -2.357142950807300519e-02 0.000000000000000000e+00
-3.492857090064460657e-02 -2.357142950807300519e-02 2.357142950807297743e-02
-3.492857090064460657e-02 -2.357142950807300519e-02 4.714285901614595486e-02
-3.492857090064460657e-02 -2.357142950807300519e-02 7.071428852421896005e-02
-3.492857090064460657e-02 -2.357142950807300519e-02 9.428571803229196524e-02
-3.492857090064460657e-02 -2.357142950807300519e-02 1.178571475403649149e-01
-3.492857090064460657e-02 -2.357142950807300519e-02 1.414285770484379201e-01
-2.775557561562891351e-17 -2.357142950807300519e-02 -1.414285770484379479e-01
-2.775557561562891351e-17 -2.357142950807300519e-02 -1.178571475403649427e-01
-2.775557561562891351e-17 -2.357142950807300519e-02 -9.428571803229196524e-02
-2.775557561562891351e-17 -2.357142950807300519e-02 -7.071428852421897393e-02
-2.775557561562891351e-17 -2.357142950807300519e-02 -4.714285901614598262e-02
-2.775557561562891351e-17 -2.357142950807300519e-02 -2.357142950807300519e-02
-2.775557561562891351e-17 -2.357142950807300519e-02 0.000000000000000000e+00
-2.775557561562891351e-17 -2.357142950807300519e-02 2.357142950807297743e-02
-2.775557561562891351e-17 -2.357142950807300519e-02 4.714285901614595486e-02
-2.775557561562891351e-17 -2.357142950807300519e-02 7.071428852421896005e-02
-2.775557561562891351e-17 -2.357142950807300519e-02 9.428571803229196524e-02
-2.775557561562891351e-17 -2.357142950807300519e-02 1.178571475403649149e-01
-2.775557561562891351e-17 -2.357142950807300519e-02 1.414285770484379201e-01
3.492857090064455106e-02 -2.357142950807300519e-02 -1.650000065565109253e-01
3.492857090064455106e-02 -2.357142950807300519e-02 -1.414285770484379479e-01
3.492857090064455106e-02 -2.357142950807300519e-02 -1.178571475403649427e-01
3.492857090064455106e-02 -2.357142950807300519e-02 -9.428571803229196524e-02
3.492857090064455106e-02 -2.357142950807300519e-02 -7.071428852421897393e-02
3.492857090064455106e-02 -2.357142950807300519e-02 -4.714285901614598262e-02
3.492857090064455106e-02 -2.357142950807300519e-02 -2.357142950807300519e-02
3.492857090064455106e-02 -2.357142950807300519e-02 0.000000000000000000e+00
3.492857090064455106e-02 -2.357142950807300519e-02 2.357142950807297743e-02
3.492857090064455106e-02 -2.357142950807300519e-02 4.714285901614595486e-02
3.492857090064455106e-02 -2.357142950807300519e-02 7.071428852421896005e-02
3.492857090064455106e-02 -2.357142950807300519e-02 9.428571803229196524e-02
3.492857090064455106e-02 -2.357142950807300519e-02 1.178571475403649149e-01
3.492857090064455106e-02 -2.357142950807300519e-02 1.414285770484379201e-01
3.492857090064455106e-02 -2.357142950807300519e-02 1.650000065565109253e-01
6.985714180128910211e-02 -2.357142950807300519e-02 -1.414285770484379479e-01
6.985714180128910211e-02 -2.357142950807300519e-02 -1.178571475403649427e-01
6.985714180128910211e-02 -2.357142950807300519e-02 -9.428571803229196524e-02
6.985714180128910211e-02 -2.357142950807300519e-02 -7.071428852421897393e-02
6.985714180128910211e-02 -2.357142950807300519e-02 -4.714285901614598262e-02
6.985714180128910211e-02 -2.357142950807300519e-02 -2.357142950807300519e-02
6.985714180128910211e-02 -2.357142950807300519e-02 0.000000000000000000e+00
6.985714180128910211e-02 -2.357142950807300519e-02 2.357142950807297743e-02
6.985714180128910211e-02 -2.357142950807300519e-02 4.714285901614595486e-02
6.985714180128910211e-02 -2.357142950807300519e-02 7.071428852421896005e-02
6.985714180128910211e-02 -2.357142950807300519e-02 9.428571803229196524e-02
6.985714180128910211e-02 -2.357142950807300519e-02 1.178571475403649149e-01
6.985714180128910211e-02 -2.357142950807300519e-02 1.414285770484379201e-01
1.047857127019337087e-01 -2.357142950807300519e-02 -1.650000065565109253e-01
1.047857127019337087e-01 -2.357142950807300519e-02 -1.414285770484379479e-01
1.047857127019337087e-01 -2.357142950807300519e-02 -1.178571475403649427e-01
1.047857127019337087e-01 -2.357142950807300519e-02 -9.428571803229196524e-02
1.047857127019337087e-01 -2.357142950807300519e-02 -7.071428852421897393e-02
1.047857127019337087e-01 -2.357142950807300519e-02 -4.714285901614598262e-02
1.047857127019337087e-01 -2.357142950807300519e-02 -2.357142950807300519e-02
1.047857127019337087e-01 -2.357142950807300519e-02 0.000000000000000000e+00
1.047857127019337087e-01 -2.357142950807300519e-02 2.357142950807297743e-02
1.047857127019337087e-01 -2.357142950807300519e-02 4.714285901614595486e-02
1.047857127019337087e-01 -2.357142950807300519e-02 7.071428852421896005e-02
1.047857127019337087e-01 -2.357142950807300519e-02 9.428571803229196524e-02
1.047857127019337087e-01 -2.357142950807300519e-02 1.178571475403649149e-01
1.047857127019337087e-01 -2.357142950807300519e-02 1.414285770484379201e-01
1.047857127019337087e-01 -2.357142950807300519e-02 1.650000065565109253e-01
1.397142836025782597e-01 -2.357142950807300519e-02 -1.414285770484379479e-01
1.397142836025782597e-01 -2.357142950807300519e-02 -1.178571475403649427e-01
1.397142836025782597e-01 -2.357142950807300519e-02 -9.428571803229196524e-02
1.397142836025782597e-01 -2.357142950807300519e-02 -7.071428852421897393e-02
1.397142836025782597e-01 -2.357142950807300519e-02 -4.714285901614598262e-02
1.397142836025782597e-01 -2.357142950807300519e-02 -2.357142950807300519e-02
1.397142836025782597e-01 -2.357142950807300519e-02 0.000000000000000000e+00
1.397142836025782597e-01 -2.357142950807300519e-02 2.357142950807297743e-02
1.397142836025782597e-01 -2.357142950807300519e-02 4.714285901614595486e-02
1.397142836025782597e-01 -2.357142950807300519e-02 7.071428852421896005e-02
1.397142836025782597e-01 -2.357142950807300519e-02 9.428571803229196524e-02
1.397142836025782597e-01 -2.357142950807300519e-02 1.178571475403649149e-01
1.397142836025782597e-01 -2.357142950807300519e-02 1.414285770484379201e-01
1.397142836025782597e-01 -2.357142950807300519e-02 1.650000065565109253e-01
1.746428545032228108e-01 -2.357142950807300519e-02 -1.650000065565109253e-01
1.746428545032228108e-01 -2.357142950807300519e-02 -1.414285770484379479e-01
1.746428545032228108e-01 -2.357142950807300519e-02 -1.178571475403649427e-01
1.746428545032228108e-01 -2.357142950807300519e-02 -9.428571803229196524e-02
1.746428545032228108e-01 -2.357142950807300519e-02 -7.071428852421897393e-02
1.746428545032228108e-01 -2.357142950807300519e-02 -4.714285901614598262e-02
1.746428545032228108e-01 -2.357142950807300519e-02 -2.357142950807300519e-02
1.746428545032228108e-01 -2.357142950807300519e-02 0.000000000000000000e+00
1.746428545032228108e-01 -2.357142950807300519e-02 2.357142950807297743e-02
1.746428545032228108e-01 -2.357142950807300519e-02 4.714285901614595486e-02
1.746428545032228108e-01 -2.357142950807300519e-02 7.071428852421896005e-02
1.746428545032228108e-01 -2.357142950807300519e-02 9.428571803229196524e-02
1.746428545032228108e-01 -2.357142950807300519e-02 1.178571475403649149e-01
1.746428545032228108e-01 -2.357142950807300519e-02 1.414285770484379201e-01
1.746428545032228108e-01 -2.357142950807300519e-02 1.650000065565109253e-01
2.095714254038674174e-01 -2.357142950807300519e-02 -1.414285770484379479e-01
2.095714254038674174e-01 -2.357142950807300519e-02 -1.178571475403649427e-01
2.095714254038674174e-01 -2.357142950807300519e-02 -9.428571803229196524e-02
2.095714254038674174e-01 -2.357142950807300519e-02 -7.071428852421897393e-02
2.095714254038674174e-01 -2.357142950807300519e-02 -4.714285901614598262e-02
2.095714254038674174e-01 -2.357142950807300519e-02 -2.357142950807300519e-02
2.095714254038674174e-01 -2.357142950807300519e-02 0.000000000000000000e+00
2.095714254038674174e-01 -2.357142950807300519e-02 2.357142950807297743e-02
2.095714254038674174e-01 -2.357142950807300519e-02 4.714285901614595486e-02
2.095714254038674174e-01 -2.357142950807300519e-02 7.071428852421896005e-02
2.095714254038674174e-01 -2.357142950807300519e-02 9.428571803229196524e-02
2.095714254038674174e-01 -2.357142950807300519e-02 1.178571475403649149e-01
2.095714254038674174e-01 -2.357142950807300519e-02 1.414285770484379201e-01
2.444999963045120239e-01 -2.357142950807300519e-02 -9.428571803229196524e-02
2.444999963045120239e-01 -2.357142950807300519e-02 -4.714285901614598262e-02
2.444999963045120239e-01 -2.357142950807300519e-02 2.357142950807297743e-02
2.444999963045120239e-01 -2.357142950807300519e-02 4.714285901614595486e-02
2.444999963045120239e-01 -2.357142950807300519e-02 7.071428852421896005e-02
2.444999963045120239e-01 -2.357142950807300519e-02 9.428571803229196524e-02
2.444999963045120239e-01 -2.357142950807300519e-02 1.178571475403649149e-01
2.444999963045120239e-01 -2.357142950807300519e-02 1.414285770484379201e-01
-2.444999963045120239e-01 0.000000000000000000e+00 -4.714285901614598262e-02
-2.444999963045120239e-01 0.000000000000000000e+00 2.357142950807297743e-02
-2.444999963045120239e-01 0.000000000000000000e+00 7.071428852421896005e-02
-2.444999963045120239e-01 0.000000000000000000e+00 1.178571475403649149e-01
-2.444999963045120239e-01 0.000000000000000000e+00 1.414285770484379201e-01
-2.095714254038674451e-01 0.000000000000000000e+00 -1.414285770484379479e-01
-2.095714254038674451e-01 0.000000000000000000e+00 -1.178571475403649427e-01
-2.095714254038674451e-01 0.000000000000000000e+00 -9.428571803229196524e-02
-2.095714254038674451e-01 0.000000000000000000e+00 -7.071428852421897393e-02
-2.095714254038674451e-01 0.000000000000000000e+00 -4.714285901614598262e-02
-2.095714254038674451e-01 0.000000000000000000e+00 -2.357142950807300519e-02
-2.095714254038674451e-01 0.000000000000000000e+00 0.000000000000000000e+00
-2.095714254038674451e-01 0.000000000000000000e+00 2.357142950807297743e-02
-2.095714254038674451e-01 0.000000000000000000e+00 4.714285901614595486e-02
-2.095714254038674451e-01 0.000000000000000000e+00 7.071428852421896005e-02
-2.095714254038674451e-01 0.000000000000000000e+00 9.428571803229196524e-02
-2.095714254038674451e-01 0.000000000000000000e+00 1.178571475403649149e-01
-2.095714254038674451e-01 0.000000000000000000e+00 1.414285770484379201e-01
-2.095714254038674451e-01 0.000000000000000000e+00 1.650000065565109253e-01
-1.746428545032228663e-01 0.000000000000000000e+00 -1.414285770484379479e-01
-1.746428545032228663e-01 0.000000000000000000e+00 -1.178571475403649427e-01
-1.746428545032228663e-01 0.000000000000000000e+00 -9.428571803229196524e-02
-1.746428545032228663e-01 0.000000000000000000e+00 -7.071428852421897393e-02
-1.746428545032228663e-01 0.000000000000000000e+00 -4.714285901614598262e-02
-1.746428545032228663e-01 0.000000000000000000e+00 -2.357142950807300519e-02
-1.746428545032228663e-01 0.000000000000000000e+00 0.000000000000000000e+00
-1.746428545032228663e-01 0.000000000000000000e+00 2.357142950807297743e-02
-1.746428545032228663e-01 0.000000000000000000e+00 4.714285901614595486e-02
-1.746428545032228663e-01 0.000000000000000000e+00 7.071428852421896005e-02
-1.746428545032228663e-01 0.000000000000000000e+00 9.428571803229196524e-02
-1.746428545032228663e-01 0.000000000000000000e+00 1.178571475403649149e-01
-1.746428545032228663e-01 0.000000000000000000e+00 1.414285770484379201e-01
-1.397142836025783152e-01 0.000000000000000000e+00 -1.414285770484379479e-01
-1.397142836025783152e-01 0.000000000000000000e+00 -1.178571475403649427e-01
-1.397142836025783152e-01 0.000000000000000000e+00 -9.428571803229196524e-02
-1.397142836025783152e-01 0.000000000000000000e+00 -7.071428852421897393e-02
-1.397142836025783152e-01 0.000000000000000000e+00 -4.714285901614598262e-02
-1.397142836025783152e-01 0.000000000000000000e+00 -2.357142950807300519e-02
-1.397142836025783152e-01 0.000000000000000000e+00 0.000000000000000000e+00
-1.397142836025783152e-01 0.000000000000000000e+00 2.357142950807297743e-02
-1.397142836025783152e-01 0.000000000000000000e+00 4.714285901614595486e-02
-1.397142836025783152e-01 0.000000000000000000e+00 7.071428852421896005e-02
-1.397142836025783152e-01 0.000000000000000000e+00 9.428571803229196524e-02
-1.397142836025783152e-01 0.000000000000000000e+00 1.178571475403649149e-01
-1.397142836025783152e-01 0.000000000000000000e+00 1.414285770484379201e-01
-1.397142836025783152e-01 0.000000000000000000e+00 1.650000065565109253e-01
-1.047857127019337364e-01 0.000000000000000000e+00 -1.414285770484379479e-01
-1.047857127019337364e-01 0.000000000000000000e+00 -1.178571475403649427e-01
-1.047857127019337364e-01 0.000000000000000000e+00 -9.428571803229196524e-02
-1.047857127019337364e-01 0.000000000000000000e+00 -7.071428852421897393e-02
-1.047857127019337364e-01 0.000000000000000000e+00 -4.714285901614598262e-02
-1.047857127019337364e-01 0.000000000000000000e+00 -2.357142950807300519e-02
-1.047857127019337364e-01 0.000000000000000000e+00 0.000000000000000000e+00
-1.047857127019337364e-01 0.000000000000000000e+00 2.357142950807297743e-02
-1.047857127019337364e-01 0.000000000000000000e+00 4.714285901614595486e-02
-1.047857127019337364e-01 0.000000000000000000e+00 7.071428852421896005e-02
-1.047857127019337364e-01 0.000000000000000000e+00 9.428571803229196524e-02
-1.047857127019337364e-01 0.000000000000000000e+00 1.178571475403649149e-01
-1.047857127019337364e-01 0.000000000000000000e+00 1.414285770484379201e-01
-6.985714180128915762e-02 0.000000000000000000e+00 -1.650000065565109253e-01
-6.985714180128915762e-02 0.000000000000000000e+00 -1.414285770484379479e-01
-6.985714180128915762e-02 0.000000000000000000e+00 -1.178571475403649427e-01
-6.985714180128915762e-02 0.000000000000000000e+00 -9.428571803229196524e-02
-6.985714180128915762e-02 0.000000000000000000e+00 -7.071428852421897393e-02
-6.985714180128915762e-02 0.000000000000000000e+00 -4.714285901614598262e-02
-6.985714180128915762e-02 0.000000000000000000e+00 -2.357142950807300519e-02
-6.985714180128915762e-02 0.000000000000000000e+00 0.000000000000000000e+00
-6.985714180128915762e-02 0.000000000000000000e+00 2.357142950807297743e-02
-6.985714180128915762e-02 0.000000000000000000e+00 4.714285901614595486e-02
-6.985714180128915762e-02 0.000000000000000000e+00 7.071428852421896005e-02
-6.985714180128915762e-02 0.000000000000000000e+00 9.428571803229196524e-02
-6.985714180128915762e-02 0.000000000000000000e+00 1.178571475403649149e-01
-6.985714180128915762e-02 0.000000000000000000e+00 1.414285770484379201e-01
-6.985714180128915762e-02 0.000000000000000000e+00 1.650000065565109253e-01
-3.492857090064460657e-02 0.000000000000000000e+00 -1.414285770484379479e-01
-3.492857090064460657e-02 0.000000000000000000e+00 -1.178571475403649427e-01
-3.492857090064460657e-02 0.000000000000000000e+00 -9.428571803229196524e-02
-3.492857090064460657e-02 0.000000000000000000e+00 -7.071428852421897393e-02
-3.492857090064460657e-02 0.000000000000000000e+00 -4.714285901614598262e-02
-3.492857090064460657e-02 0.000000000000000000e+00 -2.357142950807300519e-02
-3.492857090064460657e-02 0.000000000000000000e+00 0.000000000000000000e+00
-3.492857090064460657e-02 0.000000000000000000e+00 2.357142950807297743e-02
-3.492857090064460657e-02 0.000000000000000000e+00 4.714285901614595486e-02
-3.492857090064460657e-02 0.000000000000000000e+00 7.071428852421896005e-02
-3.492857090064460657e-02 0.000000000000000000e+00 9.428571803229196524e-02
-3.492857090064460657e-02 0.000000000000000000e+00 1.178571475403649149e-01
-3.492857090064460657e-02 0.000000000000000000e+00 1.414285770484379201e-01
-2.775557561562891351e-17 0.000000000000000000e+00 -1.650000065565109253e-01
-2.775557561562891351e-17 0.000000000000000000e+00 -1.414285770484379479e-01
-2.775557561562891351e-17 0.000000000000000000e+00 -1.178571475403649427e-01
-2.775557561562891351e-17 0.000000000000000000e+00 -9.428571803229196524e-02
-2.775557561562891351e-17 0.000000000000000000e+00 -7.071428852421897393e-02
-2.775557561562891351e-17 0.000000000000000000e+00 -4.714285901614598262e-02
-2.775557561562891351e-17 0.000000000000000000e+00 -2.357142950807300519e-02
-2.775557561562891351e-17 0.000000000000000000e+00 0.000000000000000000e+00
-2.775557561562891351e-17 0.000000000000000000e+00 2.357142950807297743e-02
-2.775557561562891351e-17 0.000000000000000000e+00 4.714285901614595486e-02
-2.775557561562891351e-17 0.000000000000000000e+00 7.071428852421896005e-02
-2.775557561562891351e-17 0.000000000000000000e+00 9.428571803229196524e-02
-2.775557561562891351e-17 0.000000000000000000e+00 1.178571475403649149e-01
-2.775557561562891351e-17 0.000000000000000000e+00 1.414285770484379201e-01
-2.775557561562891351e-17 0.000000000000000000e+00 1.650000065565109253e-01
3.492857090064455106e-02 0.000000000000000000e+00 -1.650000065565109253e-01
3.492857090064455106e-02 0.000000000000000000e+00 -1.414285770484379479e-01
3.492857090064455106e-02 0.000000000000000000e+00 -1.178571475403649427e-01
3.492857090064455106e-02 0.000000000000000000e+00 -9.428571803229196524e-02
3.492857090064455106e-02 0.000000000000000000e+00 -7.071428852421897393e-02
3.492857090064455106e-02 0.000000000000000000e+00 -4.714285901614598262e-02
3.492857090064455106e-02 0.000000000000000000e+00 -2.357142950807300519e-02
3.492857090064455106e-02 0.000000000000000000e+00 0.000000000000000000e+00
3.492857090064455106e-02 0.000000000000000000e+00 2.357142950807297743e-02
3.492857090064455106e-02 0.000000000000000000e+00 4.714285901614595486e-02
3.492857090064455106e-02 0.000000000000000000e+00 7.071428852421896005e-02
3.492857090064455106e-02 0.000000000000000000e+00 9.428571803229196524e-02
3.492857090064455106e-02 0.000000000000000000e+00 1.178571475403649149e-01
3.492857090064455106e-02 0.000000000000000000e+00 1.414285770484379201e-01
3.492857090064455106e-02 0.000000000000000000e+00 1.650000065565109253e-01
6.985714180128910211e-02 0.000000000000000000e+00 -1.414285770484379479e-01
6.985714180128910211e-02 0.000000000000000000e+00 -1.178571475403649427e-01
6.985714180128910211e-02 0.000000000000000000e+00 -9.428571803229196524e-02
6.985714180128910211e-02 0.000000000000000000e+00 -7.071428852421897393e-02
6.985714180128910211e-02 0.000000000000000000e+00 -4.714285901614598262e-02
6.985714180128910211e-02 0.000000000000000000e+00 -2.357142950807300519e-02
6.985714180128910211e-02 0.000000000000000000e+00 0.000000000000000000e+00
6.985714180128910211e-02 0.000000000000000000e+00 2.357142950807297743e-02
6.985714180128910211e-02 0.000000000000000000e+00 4.714285901614595486e-02
6.985714180128910211e-02 0.000000000000000000e+00 7.071428852421896005e-02
6.985714180128910211e-02 0.000000000000000000e+00 9.428571803229196524e-02
6.985714180128910211e-02 0.000000000000000000e+00 1.178571475403649149e-01
6.985714180128910211e-02 0.000000000000000000e+00 1.414285770484379201e-01
1.047857127019337087e-01 0.000000000000000000e+00 -1.414285770484379479e-01
1.047857127019337087e-01 0.000000000000000000e+00 -1.178571475403649427e-01
1.047857127019337087e-01 0.000000000000000000e+00 -9.428571803229196524e-02
1.047857127019337087e-01 0.000000000000000000e+00 -7.071428852421897393e-02
1.047857127019337087e-01 0.000000000000000000e+00 -4.714285901614598262e-02
1.047857127019337087e-01 0.000000000000000000e+00 -2.357142950807300519e-02
1.047857127019337087e-01 0.000000000000000000e+00 0.000000000000000000e+00
1.047857127019337087e-01 0.000000000000000000e+00 2.357142950807297743e-02
1.047857127019337087e-01 0.000000000000000000e+00 4.714285901614595486e-02
1.047857127019337087e-01 0.000000000000000000e+00 7.071428852421896005e-02
1.047857127019337087e-01 0.000000000000000000e+00 9.428571803229196524e-02
1.047857127019337087e-01 0.000000000000000000e+00 1.178571475403649149e-01
1.047857127019337087e-01 0.000000000000000000e+00 1.414285770484379201e-01
1.047857127019337087e-01 0.000000000000000000e+00 1.650000065565109253e-01
1.397142836025782597e-01 0.000000000000000000e+00 -1.414285770484379479e-01
1.397142836025782597e-01 0.000000000000000000e+00 -1.178571475403649427e-01
1.397142836025782597e-01 0.000000000000000000e+00 -9.428571803229196524e-02
1.397142836025782597e-01 0.000000000000000000e+00 -7.071428852421897393e-02
1.397142836025782597e-01 0.000000000000000000e+00 -4.714285901614598262e-02
1.397142836025782597e-01 0.000000000000000000e+00 -2.357142950807300519e-02
1.397142836025782597e-01 0.000000000000000000e+00 0.000000000000000000e+00
1.397142836025782597e-01 0.000000000000000000e+00 2.357142950807297743e-02
1.397142836025782597e-01 0.000000000000000000e+00 4.714285901614595486e-02
1.397142836025782597e-01 0.000000000000000000e+00 7.071428852421896005e-02
1.397142836025782597e-01 0.000000000000000000e+00 9.428571803229196524e-02
1.397142836025782597e-01 0.000000000000000000e+00 1.178571475403649149e-01
1.397142836025782597e-01 0.000000000000000000e+00 1.414285770484379201e-01
1.397142836025782597e-01 0.000000000000000000e+00 1.650000065565109253e-01
1.746428545032228108e-01 0.000000000000000000e+00 -1.414285770484379479e-01
1.746428545032228108e-01 0.000000000000000000e+00 -1.178571475403649427e-01
1.746428545032228108e-01 0.000000000000000000e+00 -9.428571803229196524e-02
1.746428545032228108e-01 0.000000000000000000e+00 -7.071428852421897393e-02
1.746428545032228108e-01 0.000000000000000000e+00 -4.714285901614598262e-02
1.746428545032228108e-01 0.000000000000000000e+00 -2.357142950807300519e-02
1.746428545032228108e-01 0.000000000000000000e+00 0.000000000000000000e+00
1.746428545032228108e-01 0.000000000000000000e+00 2.357142950807297743e-02
1.746428545032228108e-01 0.000000000000000000e+00 4.714285901614595486e-02
1.746428545032228108e-01 0.000000000000000000e+00 7.071428852421896005e-02
1.746428545032228108e-01 0.000000000000000000e+00 9.428571803229196524e-02
1.746428545032228108e-01 0.000000000000000000e+00 1.178571475403649149e-01
1.746428545032228108e-01 0.000000000000000000e+00 1.414285770484379201e-01
2.095714254038674174e-01 0.000000000000000000e+00 -1.414285770484379479e-01
2.095714254038674174e-01 0.000000000000000000e+00 -1.178571475403649427e-01
2.095714254038674174e-01 0.000000000000000000e+00 -9.428571803229196524e-02
2.095714254038674174e-01 0.000000000000000000e+00 -7.071428852421897393e-02
2.095714254038674174e-01 0.000000000000000000e+00 -4.714285901614598262e-02
2.095714254038674174e-01 0.000000000000000000e+00 -2.357142950807300519e-02
2.095714254038674174e-01 0.000000000000000000e+00 0.000000000000000000e+00
2.095714254038674174e-01 0.000000000000000000e+00 2.357142950807297743e-02
2.095714254038674174e-01 0.000000000000000000e+00 4.714285901614595486e-02
2.095714254038674174e-01 0.000000000000000000e+00 7.071428852421896005e-02
2.095714254038674174e-01 0.000000000000000000e+00 9.428571803229196524e-02
2.095714254038674174e-01 0.000000000000000000e+00 1.178571475403649149e-01
2.095714254038674174e-01 0.000000000000000000e+00 1.414285770484379201e-01
2.444999963045120239e-01 0.000000000000000000e+00 -4.714285901614598262e-02
2.444999963045120239e-01 0.000000000000000000e+00 2.357142950807297743e-02
2.444999963045120239e-01 0.000000000000000000e+00 7.071428852421896005e-02
-2.444999963045120239e-01 2.357142950807297743e-02 -1.414285770484379479e-01
-2.444999963045120239e-01 2.357142950807297743e-02 -1.178571475403649427e-01
-2.444999963045120239e-01 2.357142950807297743e-02 -9.428571803229196524e-02
-2.444999963045120239e-01 2.357142950807297743e-02 -4.714285901614598262e-02
-2.444999963045120239e-01 2.357142950807297743e-02 -2.357142950807300519e-02
-2.444999963045120239e-01 2.357142950807297743e-02 0.000000000000000000e+00
-2.444999963045120239e-01 2.357142950807297743e-02 2.357142950807297743e-02
-2.444999963045120239e-01 2.357142950807297743e-02 4.714285901614595486e-02
-2.444999963045120239e-01 2.357142950807297743e-02 7.071428852421896005e-02
-2.444999963045120239e-01 2.357142950807297743e-02 9.428571803229196524e-02
-2.444999963045120239e-01 2.357142950807297743e-02 1.178571475403649149e-01
-2.444999963045120239e-01 2.357142950807297743e-02 1.414285770484379201e-01
-2.095714254038674451e-01 2.357142950807297743e-02 -1.414285770484379479e-01
-2.095714254038674451e-01 2.357142950807297743e-02 -1.178571475403649427e-01
-2.095714254038674451e-01 2.357142950807297743e-02 -9.428571803229196524e-02
-2.095714254038674451e-01 2.357142950807297743e-02 -7.071428852421897393e-02
-2.095714254038674451e-01 2.357142950807297743e-02 -4.714285901614598262e-02
-2.095714254038674451e-01 2.357142950807297743e-02 -2.357142950807300519e-02
-2.095714254038674451e-01 2.357142950807297743e-02 0.000000000000000000e+00
-2.095714254038674451e-01 2.357142950807297743e-02 2.357142950807297743e-02
-2.095714254038674451e-01 2.357142950807297743e-02 4.714285901614595486e-02
-2.095714254038674451e-01 2.357142950807297743e-02 7.071428852421896005e-02
-2.095714254038674451e-01 2.357142950807297743e-02 9.428571803229196524e-02
-2.095714254038674451e-01 2.357142950807297743e-02 1.178571475403649149e-01
-2.095714254038674451e-01 2.357142950807297743e-02 1.414285770484379201e-01
-2.095714254038674451e-01 2.357142950807297743e-02 1.650000065565109253e-01
-1.746428545032228663e-01 2.357142950807297743e-02 -1.414285770484379479e-01
-1.746428545032228663e-01 2.357142950807297743e-02 -1.178571475403649427e-01
-1.746428545032228663e-01 2.357142950807297743e-02 -9.428571803229196524e-02
-1.746428545032228663e-01 2.357142950807297743e-02 -7.071428852421897393e-02
-1.746428545032228663e-01 2.357142950807297743e-02 -4.714285901614598262e-02
-1.746428545032228663e-01 2.357142950807297743e-02 -2.357142950807300519e-02
-1.746428545032228663e-01 2.357142950807297743e-02 0.000000000000000000e+00
-1.746428545032228663e-01 2.357142950807297743e-02 2.357142950807297743e-02
-1.746428545032228663e-01 2.357142950807297743e-02 4.714285901614595486e-02
-1.746428545032228663e-01 2.357142950807297743e-02 7.071428852421896005e-02
-1.746428545032228663e-01 2.357142950807297743e-02 9.428571803229196524e-02
-1.746428545032228663e-01 2.357142950807297743e-02 1.178571475403649149e-01
-1.746428545032228663e-01 2.357142950807297743e-02 1.414285770484379201e-01
-1.397142836025783152e-01 2.357142950807297743e-02 -1.650000065565109253e-01
-1.397142836025783152e-01 2.357142950807297743e-02 -1.414285770484379479e-01
-1.397142836025783152e-01 2.357142950807297743e-02 -1.178571475403649427e-01
-1.397142836025783152e-01 2.357142950807297743e-02 -9.428571803229196524e-02
-1.397142836025783152e-01 2.357142950807297743e-02 -7.071428852421897393e-02
-1.397142836025783152e-01 2.357142950807297743e-02 -4.714285901614598262e-02
-1.397142836025783152e-01 2.357142950807297743e-02 -2.357142950807300519e-02
-1.397142836025783152e-01 2.357142950807297743e-02 0.000000000000000000e+00
-1.397142836025783152e-01 2.357142950807297743e-02 2.357142950807297743e-02
-1.397142836025783152e-01 2.357142950807297743e-02 4.714285901614595486e-02
-1.397142836025783152e-01 2.357142950807297743e-02 7.071428852421896005e-02
-1.397142836025783152e-01 2.357142950807297743e-02 9.428571803229196524e-02
-1.397142836025783152e-01 2.357142950807297743e-02 1.178571475403649149e-01
-1.397142836025783152e-01 2.357142950807297743e-02 1.414285770484379201e-01
-1.047857127019337364e-01 2.357142950807297743e-02 -1.650000065565109253e-01
-1.047857127019337364e-01 2.357142950807297743e-02 -1.414285770484379479e-01
-1.047857127019337364e-01 2.357142950807297743e-02 -1.178571475403649427e-01
-1.047857127019337364e-01 2.357142950807297743e-02 -9.428571803229196524e-02
-1.047857127019337364e-01 2.357142950807297743e-02 -7.071428852421897393e-02
-1.047857127019337364e-01 2.357142950807297743e-02 -4.714285901614598262e-02
-1.047857127019337364e-01 2.357142950807297743e-02 -2.357142950807300519e-02
-1.047857127019337364e-01 2.357142950807297743e-02 0.000000000000000000e+00
-1.047857127019337364e-01 2.357142950807297743e-02 2.357142950807297743e-02
-1.047857127019337364e-01 2.357142950807297743e-02 4.714285901614595486e-02
-1.047857127019337364e-01 2.357142950807297743e-02 7.071428852421896005e-02
-1.047857127019337364e-01 2.357142950807297743e-02 9.428571803229196524e-02
-1.047857127019337364e-01 2.357142950807297743e-02 1.178571475403649149e-01
-1.047857127019337364e-01 2.357142950807297743e-02 1.414285770484379201e-01
-1.047857127019337364e-01 2.357142950807297743e-02 1.650000065565109253e-01
-6.985714180128915762e-02 2.357142950807297743e-02 -1.650000065565109253e-01
-6.985714180128915762e-02 2.357142950807297743e-02 -1.414285770484379479e-01
-6.985714180128915762e-02 2.357142950807297743e-02 -1.178571475403649427e-01
-6.985714180128915762e-02 2.357142950807297743e-02 -9.428571803229196524e-02
-6.985714180128915762e-02 2.357142950807297743e-02 -7.071428852421897393e-02
-6.985714180128915762e-02 2.357142950807297743e-02 -4.714285901614598262e-02
-6.985714180128915762e-02 2.357142950807297743e-02 -2.357142950807300519e-02
-6.985714180128915762e-02 2.357142950807297743e-02 0.000000000000000000e+00
-6.985714180128915762e-02 2.357142950807297743e-02 2.357142950807297743e-02
-6.985714180128915762e-02 2.357142950807297743e-02 4.714285901614595486e-02
-6.985714180128915762e-02 2.357142950807297743e-02 7.071428852421896005e-02
-6.985714180128915762e-02 2.357142950807297743e-02 9.428571803229196524e-02
-6.985714180128915762e-02 2.357142950807297743e-02 1.178571475403649149e-01
-6.985714180128915762e-02 2.357142950807297743e-02 1.414285770484379201e-01
-6.985714180128915762e-02 2.357142950807297743e-02 1.650000065565109253e-01
-3.492857090064460657e-02 2.357142950807297743e-02 -1.650000065565109253e-01
-3.492857090064460657e-02 2.357142950807297743e-02 -1.414285770484379479e-01
-3.492857090064460657e-02 2.357142950807297743e-02 -1.178571475403649427e-01
-3.492857090064460657e-02 2.357142950807297743e-02 -9.428571803229196524e-02
-3.492857090064460657e-02 2.357142950807297743e-02 -7.071428852421897393e-02
-3.492857090064460657e-02 2.357142950807297743e-02 -4.714285901614598262e-02
-3.492857090064460657e-02 2.357142950807297743e-02 -2.357142950807300519e-02
-3.492857090064460657e-02 2.357142950807297743e-02 0.000000000000000000e+00
-3.492857090064460657e-02 2.357142950807297743e-02 2.357142950807297743e-02
-3.492857090064460657e-02 2.357142950807297743e-02 4.714285901614595486e-02
-3.492857090064460657e-02 2.357142950807297743e-02 7.071428852421896005e-02
-3.492857090064460657e-02 2.357142950807297743e-02 9.428571803229196524e-02
-3.492857090064460657e-02 2.357142950807297743e-02 1.178571475403649149e-01
-3.492857090064460657e-02 2.357142950807297743e-02 1.414285770484379201e-01
-3.492857090064460657e-02 2.357142950807297743e-02 1.650000065565109253e-01
-2.775557561562891351e-17 2.357142950807297743e-02 -1.650000065565109253e-01
-2.775557561562891351e-17 2.357142950807297743e-02 -1.414285770484379479e-01
-2.775557561562891351e-17 2.357142950807297743e-02 -1.178571475403649427e-01
-2.775557561562891351e-17 2.357142950807297743e-02 -9.428571803229196524e-02
-2.775557561562891351e-17 2.357142950807297743e-02 -7.071428852421897393e-02
-2.775557561562891351e-17 2.357142950807297743e-02 -4.714285901614598262e-02
-2.775557561562891351e-17 2.357142950807297743e-02 -2.357142950807300519e-02
-2.775557561562891351e-17 2.357142950807297743e-02 0.000000000000000000e+00
-2.775557561562891351e-17 2.357142950807297743e-02 2.357142950807297743e-02
-2.775557561562891351e-17 2.357142950807297743e-02 4.714285901614595486e-02
-2.775557561562891351e-17 2.357142950807297743e-02 7.071428852421896005e-02
-2.775557561562891351e-17 2.357142950807297743e-02 9.428571803229196524e-02
-2.775557561562891351e-17 2.357142950807297743e-02 1.178571475403649149e-01
-2.775557561562891351e-17 2.357142950807297743e-02 1.414285770484379201e-01
-2.775557561562891351e-17 2.357142950807297743e-02 1.650000065565109253e-01
3.492857090064455106e-02 2.357142950807297743e-02 -1.650000065565109253e-01
3.492857090064455106e-02 2.357142950807297743e-02 -1.414285770484379479e-01
3.492857090064455106e-02 2.357142950807297743e-02 -1.178571475403649427e-01
3.492857090064455106e-02 2.357142950807297743e-02 -9.428571803229196524e-02
3.492857090064455106e-02 2.357142950807297743e-02 -7.071428852421897393e-02
3.492857090064455106e-02 2.357142950807297743e-02 -4.714285901614598262e-02
3.492857090064455106e-02 2.357142950807297743e-02 -2.357142950807300519e-02
3.492857090064455106e-02 2.357142950807297743e-02 0.000000000000000000e+00
3.492857090064455106e-02 2.357142950807297743e-02 2.357142950807297743e-02
3.492857090064455106e-02 2.357142950807297743e-02 4.714285901614595486e-02
3.492857090064455106e-02 2.357142950807297743e-02 7.071428852421896005e-02
3.492857090064455106e-02 2.357142950807297743e-02 9.428571803229196524e-02
3.492857090064455106e-02 2.357142950807297743e-02 1.178571475403649149e-01
3.492857090064455106e-02 2.357142950807297743e-02 1.414285770484379201e-01
3.492857090064455106e-02 2.357142950807297743e-02 1.650000065565109253e-01
6.985714180128910211e-02 2.357142950807297743e-02 -1.650000065565109253e-01
6.985714180128910211e-02 2.357142950807297743e-02 -1.414285770484379479e-01
6.985714180128910211e-02 2.357142950807297743e-02 -1.178571475403649427e-01
6.985714180128910211e-02 2.357142950807297743e-02 -9.428571803229196524e-02
6.985714180128910211e-02 2.357142950807297743e-02 -7.071428852421897393e-02
6.985714180128910211e-02 2.357142950807297743e-02 -4.714285901614598262e-02
6.985714180128910211e-02 2.357142950807297743e-02 -2.357142950807300519e-02
6.985714180128910211e-02 2.357142950807297743e-02 0.000000000000000000e+00
6.985714180128910211e-02 2.357142950807297743e-02 2.357142950807297743e-02
6.985714180128910211e-02 2.357142950807297743e-02 4.714285901614595486e-02
6.985714180128910211e-02 2.357142950807297743e-02 7.071428852421896005e-02
6.985714180128910211e-02 2.357142950807297743e-02 9.428571803229196524e-02
6.985714180128910211e-02 2.357142950807297743e-02 1.178571475403649149e-01
6.985714180128910211e-02 2.357142950807297743e-02 1.414285770484379201e-01
6.985714180128910211e-02 2.357142950807297743e-02 1.650000065565109253e-01
1.047857127019337087e-01 2.357142950807297743e-02 -1.650000065565109253e-01
1.047857127019337087e-01 2.357142950807297743e-02 -1.414285770484379479e-01
1.047857127019337087e-01 2.357142950807297743e-02 -1.178571475403649427e-01
1.047857127019337087e-01 2.357142950807297743e-02 -9.428571803229196524e-02
1.047857127019337087e-01 2.357142950807297743e-02 -7.071428852421897393e-02
1.047857127019337087e-01 2.357142950807297743e-02 -4.714285901614598262e-02
1.047857127019337087e-01 2.357142950807297743e-02 -2.357142950807300519e-02
1.047857127019337087e-01 2.357142950807297743e-02 0.000000000000000000e+00
1.047857127019337087e-01 2.357142950807297743e-02 2.357142950807297743e-02
1.047857127019337087e-01 2.357142950807297743e-02 4.714285901614595486e-02
1.047857127019337087e-01 2.357142950807297743e-02 7.071428852421896005e-02
1.047857127019337087e-01 2.357142950807297743e-02 9.428571803229196524e-02
1.047857127019337087e-01 2.357142950807297743e-02 1.178571475403649149e-01
1.047857127019337087e-01 2.357142950807297743e-02 1.414285770484379201e-01
1.047857127019337087e-01 2.357142950807297743e-02 1.650000065565109253e-01
1.397142836025782597e-01 2.357142950807297743e-02 -1.650000065565109253e-01
1.397142836025782597e-01 2.357142950807297743e-02 -1.414285770484379479e-01
1.397142836025782597e-01 2.357142950807297743e-02 -1.178571475403649427e-01
1.397142836025782597e-01 2.357142950807297743e-02 -9.428571803229196524e-02
1.397142836025782597e-01 2.357142950807297743e-02 -7.071428852421897393e-02
1.397142836025782597e-01 2.357142950807297743e-02 -4.714285901614598262e-02
1.397142836025782597e-01 2.357142950807297743e-02 -2.357142950807300519e-02
1.397142836025782597e-01 2.357142950807297743e-02 0.000000000000000000e+00
1.397142836025782597e-01 2.357142950807297743e-02 2.357142950807297743e-02
1.397142836025782597e-01 2.357142950807297743e-02 4.714285901614595486e-02
1.397142836025782597e-01 2.357142950807297743e-02 7.071428852421896005e-02
1.397142836025782597e-01 2.357142950807297743e-02 9.428571803229196524e-02
1.397142836025782597e-01 2.357142950807297743e-02 1.178571475403649149e-01
1.397142836025782597e-01 2.357142950807297743e-02 1.414285770484379201e-01
1.397142836025782597e-01 2.357142950807297743e-02 1.650000065565109253e-01
1.746428545032228108e-01 2.357142950807297743e-02 -1.650000065565109253e-01
1.746428545032228108e-01 2.357142950807297743e-02 -1.414285770484379479e-01
1.746428545032228108e-01 2.357142950807297743e-02 -1.178571475403649427e-01
1.746428545032228108e-01 2.357142950807297743e-02 -9.428571803229196524e-02
1.746428545032228108e-01 2.357142950807297743e-02 -7.071428852421897393e-02
1.746428545032228108e-01 2.357142950807297743e-02 -4.714285901614598262e-02
1.746428545032228108e-01 2.357142950807297743e-02 -2.357142950807300519e-02
1.746428545032228108e-01 2.357142950807297743e-02 0.000000000000000000e+00
1.746428545032228108e-01 2.357142950807297743e-02 2.357142950807297743e-02
1.746428545032228108e-01 2.357142950807297743e-02 4.714285901614595486e-02
1.746428545032228108e-01 2.357142950807297743e-02 7.071428852421896005e-02
1.746428545032228108e-01 2.357142950807297743e-02 9.428571803229196524e-02
1.746428545032228108e-01 2.357142950807297743e-02 1.178571475403649149e-01
1.746428545032228108e-01 2.357142950807297743e-02 1.414285770484379201e-01
1.746428545032228108e-01 2.357142950807297743e-02 1.650000065565109253e-01
2.095714254038674174e-01 2.357142950807297743e-02 -1.650000065565109253e-01
2.095714254038674174e-01 2.357142950807297743e-02 -1.414285770484379479e-01
2.095714254038674174e-01 2.357142950807297743e-02 -1.178571475403649427e-01
2.095714254038674174e-01 2.357142950807297743e-02 -9.428571803229196524e-02
2.095714254038674174e-01 2.357142950807297743e-02 -7.071428852421897393e-02
2.095714254038674174e-01 2.357142950807297743e-02 -4.714285901614598262e-02
2.095714254038674174e-01 2.357142950807297743e-02 -2.357142950807300519e-02
2.095714254038674174e-01 2.357142950807297743e-02 0.000000000000000000e+00
2.095714254038674174e-01 2.357142950807297743e-02 2.357142950807297743e-02
2.095714254038674174e-01 2.357142950807297743e-02 4.714285901614595486e-02
2.095714254038674174e-01 2.357142950807297743e-02 7.071428852421896005e-02
2.095714254038674174e-01 2.357142950807297743e-02 9.428571803229196524e-02
2.095714254038674174e-01 2.357142950807297743e-02 1.178571475403649149e-01
2.095714254038674174e-01 2.357142950807297743e-02 1.414285770484379201e-01
2.444999963045120239e-01 2.357142950807297743e-02 -9.428571803229196524e-02
2.444999963045120239e-01 2.357142950807297743e-02 -4.714285901614598262e-02
2.444999963045120239e-01 2.357142950807297743e-02 -2.357142950807300519e-02
2.444999963045120239e-01 2.357142950807297743e-02 0.000000000000000000e+00
2.444999963045120239e-01 2.357142950807297743e-02 2.357142950807297743e-02
2.444999963045120239e-01 2.357142950807297743e-02 4.714285901614595486e-02
2.444999963045120239e-01 2.357142950807297743e-02 7.071428852421896005e-02
2.444999963045120239e-01 2.357142950807297743e-02 9.428571803229196524e-02
2.444999963045120239e-01 2.357142950807297743e-02 1.178571475403649149e-01
2.444999963045120239e-01 2.357142950807297743e-02 1.414285770484379201e-01
-2.444999963045120239e-01 4.714285901614595486e-02 -1.414285770484379479e-01
-2.444999963045120239e-01 4.714285901614595486e-02 -7.071428852421897393e-02
-2.444999963045120239e-01 4.714285901614595486e-02 -4.714285901614598262e-02
-2.444999963045120239e-01 4.714285901614595486e-02 -2.357142950807300519e-02
-2.444999963045120239e-01 4.714285901614595486e-02 2.357142950807297743e-02
-2.444999963045120239e-01 4.714285901614595486e-02 7.071428852421896005e-02
-2.095714254038674451e-01 4.714285901614595486e-02 -1.414285770484379479e-01
-2.095714254038674451e-01 4.714285901614595486e-02 -1.178571475403649427e-01
-2.095714254038674451e-01 4.714285901614595486e-02 -9.428571803229196524e-02
-2.095714254038674451e-01 4.714285901614595486e-02 -7.071428852421897393e-02
-2.095714254038674451e-01 4.714285901614595486e-02 -4.714285901614598262e-02
-2.095714254038674451e-01 4.714285901614595486e-02 -2.357142950807300519e-02
-2.095714254038674451e-01 4.714285901614595486e-02 0.000000000000000000e+00
-2.095714254038674451e-01 4.714285901614595486e-02 2.357142950807297743e-02
-2.095714254038674451e-01 4.714285901614595486e-02 4.714285901614595486e-02
-2.095714254038674451e-01 4.714285901614595486e-02 7.071428852421896005e-02
-2.095714254038674451e-01 4.714285901614595486e-02 9.428571803229196524e-02
-2.095714254038674451e-01 4.714285901614595486e-02 1.178571475403649149e-01
-2.095714254038674451e-01 4.714285901614595486e-02 1.414285770484379201e-01
-1.746428545032228663e-01 4.714285901614595486e-02 -1.414285770484379479e-01
-1.746428545032228663e-01 4.714285901614595486e-02 -1.178571475403649427e-01
