-4.071428435189383688e-01 -5.928571309362140607e-02 -1.185714261872427566e-01
-4.071428435189383688e-01 -5.928571309362140607e-02 -5.928571309362140607e-02
-4.071428435189383688e-01 -5.928571309362140607e-02 0.000000000000000000e+00
-4.071428435189383688e-01 -5.928571309362140607e-02 5.928571309362140607e-02
-4.071428435189383688e-01 -5.928571309362140607e-02 1.185714261872428121e-01
-4.071428435189383688e-01 -5.928571309362140607e-02 1.778571392808642182e-01
-4.071428435189383688e-01 -5.928571309362140607e-02 2.371428523744856243e-01
-4.071428435189383688e-01 -5.928571309362140607e-02 2.964285654681069193e-01
-4.071428435189383688e-01 -5.928571309362140607e-02 3.557142785617283254e-01
-4.071428435189383688e-01 -5.928571309362140607e-02 4.149999916553497314e-01
-2.035714217594692954e-01 -5.928571309362140607e-02 -4.149999916553497314e-01
-2.035714217594692954e-01 -5.928571309362140607e-02 -3.557142785617283254e-01
-2.035714217594692954e-01 -5.928571309362140607e-02 -2.964285654681069193e-01
-2.035714217594692954e-01 -5.928571309362140607e-02 -2.371428523744855688e-01
-2.035714217594692954e-01 -5.928571309362140607e-02 -1.778571392808641627e-01
-2.035714217594692954e-01 -5.928571309362140607e-02 -1.185714261872427566e-01
-2.035714217594692954e-01 -5.928571309362140607e-02 -5.928571309362140607e-02
-2.035714217594692954e-01 -5.928571309362140607e-02 0.000000000000000000e+00
-2.035714217594692954e-01 -5.928571309362140607e-02 5.928571309362140607e-02
-2.035714217594692954e-01 -5.928571309362140607e-02 1.185714261872428121e-01
-2.035714217594692954e-01 -5.928571309362140607e-02 1.778571392808642182e-01
-2.035714217594692954e-01 -5.928571309362140607e-02 2.371428523744856243e-01
-2.035714217594692954e-01 -5.928571309362140607e-02 2.964285654681069193e-01
-2.035714217594692954e-01 -5.928571309362140607e-02 3.557142785617283254e-01
-2.035714217594692954e-01 -5.928571309362140607e-02 4.149999916553497314e-01
0.000000000000000000e+00 -5.928571309362140607e-02 -4.149999916553497314e-01
0.000000000000000000e+00 -5.928571309362140607e-02 -3.557142785617283254e-01
0.000000000000000000e+00 -5.928571309362140607e-02 -2.964285654681069193e-01
0.000000000000000000e+00 -5.928571309362140607e-02 -2.371428523744855688e-01
0.000000000000000000e+00 -5.928571309362140607e-02 -1.778571392808641627e-01
0.000000000000000000e+00 -5.928571309362140607e-02 -1.185714261872427566e-01
0.000000000000000000e+00 -5.928571309362140607e-02 -5.928571309362140607e-02
0.000000000000000000e+00 -5.928571309362140607e-02 0.000000000000000000e+00
0.000000000000000000e+00 -5.928571309362140607e-02 5.928571309362140607e-02
0.000000000000000000e+00 -5.928571309362140607e-02 1.185714261872428121e-01
0.000000000000000000e+00 -5.928571309362140607e-02 1.778571392808642182e-01
0.000000000000000000e+00 -5.928571309362140607e-02 2.371428523744856243e-01
0.000000000000000000e+00 -5.928571309362140607e-02 2.964285654681069193e-01
0.000000000000000000e+00 -5.928571309362140607e-02 3.557142785617283254e-01
0.000000000000000000e+00 -5.928571309362140607e-02 4.149999916553497314e-01
2.035714217594690734e-01 -5.928571309362140607e-02 -4.149999916553497314e-01
2.035714217594690734e-01 -5.928571309362140607e-02 -3.557142785617283254e-01
2.035714217594690734e-01 -5.928571309362140607e-02 -2.964285654681069193e-01
2.035714217594690734e-01 -5.928571309362140607e-02 -2.371428523744855688e-01
2.035714217594690734e-01 -5.928571309362140607e-02 -1.778571392808641627e-01
2.035714217594690734e-01 -5.928571309362140607e-02 -1.185714261872427566e-01
2.035714217594690734e-01 -5.928571309362140607e-02 -5.928571309362140607e-02
2.035714217594690734e-01 -5.928571309362140607e-02 0.000000000000000000e+00
2.035714217594690734e-01 -5.928571309362140607e-02 5.928571309362140607e-02
2.035714217594690734e-01 -5.928571309362140607e-02 1.185714261872428121e-01
2.035714217594690734e-01 -5.928571309362140607e-02 1.778571392808642182e-01
2.035714217594690734e-01 -5.928571309362140607e-02 2.371428523744856243e-01
2.035714217594690734e-01 -5.928571309362140607e-02 2.964285654681069193e-01
2.035714217594690734e-01 -5.928571309362140607e-02 3.557142785617283254e-01
2.035714217594690734e-01 -5.928571309362140607e-02 4.149999916553497314e-01
4.071428435189381467e-01 -5.928571309362140607e-02 -4.149999916553497314e-01
4.071428435189381467e-01 -5.928571309362140607e-02 -3.557142785617283254e-01
4.071428435189381467e-01 -5.928571309362140607e-02 -2.964285654681069193e-01
4.071428435189381467e-01 -5.928571309362140607e-02 -2.371428523744855688e-01
4.071428435189381467e-01 -5.928571309362140607e-02 -1.778571392808641627e-01
4.071428435189381467e-01 -5.928571309362140607e-02 -1.185714261872427566e-01
4.071428435189381467e-01 -5.928571309362140607e-02 -5.928571309362140607e-02
4.071428435189381467e-01 -5.928571309362140607e-02 0.000000000000000000e+00
4.071428435189381467e-01 -5.928571309362140607e-02 5.928571309362140607e-02
4.071428435189381467e-01 -5.928571309362140607e-02 1.185714261872428121e-01
4.071428435189381467e-01 -5.928571309362140607e-02 1.778571392808642182e-01
4.071428435189381467e-01 -5.928571309362140607e-02 2.371428523744856243e-01
4.071428435189381467e-01 -5.928571309362140607e-02 2.964285654681069193e-01
4.071428435189381467e-01 -5.928571309362140607e-02 3.557142785617283254e-01
4.071428435189381467e-01 -5.928571309362140607e-02 4.149999916553497314e-01
6.107142652784074421e-01 -5.928571309362140607e-02 -4.149999916553497314e-01
6.107142652784074421e-01 -5.928571309362140607e-02 -3.557142785617283254e-01
6.107142652784074421e-01 -5.928571309362140607e-02 -2.964285654681069193e-01
6.107142652784074421e-01 -5.928571309362140607e-02 -2.371428523744855688e-01
6.107142652784074421e-01 -5.928571309362140607e-02 -1.778571392808641627e-01
6.107142652784074421e-01 -5.928571309362140607e-02 -1.185714261872427566e-01
6.107142652784074421e-01 -5.928571309362140607e-02 -5.928571309362140607e-02
6.107142652784074421e-01 -5.928571309362140607e-02 0.000000000000000000e+00
6.107142652784074421e-01 -5.928571309362140607e-02 5.928571309362140607e-02
6.107142652784074421e-01 -5.928571309362140607e-02 1.185714261872428121e-01
6.107142652784074421e-01 -5.928571309362140607e-02 1.778571392808642182e-01
6.107142652784074421e-01 -5.928571309362140607e-02 2.371428523744856243e-01
6.107142652784074421e-01 -5.928571309362140607e-02 2.964285654681069193e-01
6.107142652784074421e-01 -5.928571309362140607e-02 3.557142785617283254e-01
6.107142652784074421e-01 -5.928571309362140607e-02 4.149999916553497314e-01
8.142856870378767375e-01 -5.928571309362140607e-02 -4.149999916553497314e-01
8.142856870378767375e-01 -5.928571309362140607e-02 -3.557142785617283254e-01
8.142856870378767375e-01 -5.928571309362140607e-02 -2.964285654681069193e-01
8.142856870378767375e-01 -5.928571309362140607e-02 -2.371428523744855688e-01
8.142856870378767375e-01 -5.928571309362140607e-02 -1.778571392808641627e-01
8.142856870378767375e-01 -5.928571309362140607e-02 -1.185714261872427566e-01
8.142856870378767375e-01 -5.928571309362140607e-02 -5.928571309362140607e-02
8.142856870378767375e-01 -5.928571309362140607e-02 0.000000000000000000e+00
8.142856870378767375e-01 -5.928571309362140607e-02 5.928571309362140607e-02
8.142856870378767375e-01 -5.928571309362140607e-02 1.185714261872428121e-01
8.142856870378767375e-01 -5.928571309362140607e-02 1.778571392808642182e-01
8.142856870378767375e-01 -5.928571309362140607e-02 2.371428523744856243e-01
8.142856870378767375e-01 -5.928571309362140607e-02 2.964285654681069193e-01
8.142856870378767375e-01 -5.928571309362140607e-02 3.557142785617283254e-01
8.142856870378767375e-01 -5.928571309362140607e-02 4.149999916553497314e-01
1.017857108797345589e+00 -5.928571309362140607e-02 -4.149999916553497314e-01
1.017857108797345589e+00 -5.928571309362140607e-02 -3.557142785617283254e-01
1.017857108797345589e+00 -5.928571309362140607e-02 -2.964285654681069193e-01
1.017857108797345589e+00 -5.928571309362140607e-02 -2.371428523744855688e-01
1.017857108797345589e+00 -5.928571309362140607e-02 -1.778571392808641627e-01
1.017857108797345589e+00 -5.928571309362140607e-02 -1.185714261872427566e-01
1.017857108797345589e+00 -5.928571309362140607e-02 -5.928571309362140607e-02
1.017857108797345589e+00 -5.928571309362140607e-02 0.000000000000000000e+00
1.017857108797345589e+00 -5.928571309362140607e-02 5.928571309362140607e-02
1.017857108797345589e+00 -5.928571309362140607e-02 1.185714261872428121e-01
1.017857108797345589e+00 -5.928571309362140607e-02 1.778571392808642182e-01
1.017857108797345589e+00 -5.928571309362140607e-02 2.371428523744856243e-01
1.017857108797345589e+00 -5.928571309362140607e-02 2.964285654681069193e-01
1.017857108797345589e+00 -5.928571309362140607e-02 3.557142785617283254e-01
1.017857108797345589e+00 -5.928571309362140607e-02 4.149999916553497314e-01
1.221428530556814884e+00 -5.928571309362140607e-02 -4.149999916553497314e-01
1.221428530556814884e+00 -5.928571309362140607e-02 -3.557142785617283254e-01
1.221428530556814884e+00 -5.928571309362140607e-02 -2.964285654681069193e-01
1.221428530556814884e+00 -5.928571309362140607e-02 -2.371428523744855688e-01
1.221428530556814884e+00 -5.928571309362140607e-02 -1.778571392808641627e-01
1.221428530556814884e+00 -5.928571309362140607e-02 -1.185714261872427566e-01
1.221428530556814884e+00 -5.928571309362140607e-02 -5.928571309362140607e-02
1.221428530556814884e+00 -5.928571309362140607e-02 0.000000000000000000e+00
1.221428530556814884e+00 -5.928571309362140607e-02 5.928571309362140607e-02
1.221428530556814884e+00 -5.928571309362140607e-02 1.185714261872428121e-01
1.221428530556814884e+00 -5.928571309362140607e-02 1.778571392808642182e-01
1.221428530556814884e+00 -5.928571309362140607e-02 2.371428523744856243e-01
1.221428530556814884e+00 -5.928571309362140607e-02 2.964285654681069193e-01
1.221428530556814884e+00 -5.928571309362140607e-02 3.557142785617283254e-01
1.221428530556814884e+00 -5.928571309362140607e-02 4.149999916553497314e-01
1.424999952316284180e+00 -5.928571309362140607e-02 -4.149999916553497314e-01
1.424999952316284180e+00 -5.928571309362140607e-02 -3.557142785617283254e-01
1.424999952316284180e+00 -5.928571309362140607e-02 -2.371428523744855688e-01
1.424999952316284180e+00 -5.928571309362140607e-02 -1.778571392808641627e-01
1.424999952316284180e+00 -5.928571309362140607e-02 -1.185714261872427566e-01
1.424999952316284180e+00 -5.928571309362140607e-02 5.928571309362140607e-02
1.424999952316284180e+00 -5.928571309362140607e-02 1.185714261872428121e-01
1.424999952316284180e+00 -5.928571309362140607e-02 1.778571392808642182e-01
1.424999952316284180e+00 -5.928571309362140607e-02 2.371428523744856243e-01
1.424999952316284180e+00 -5.928571309362140607e-02 2.964285654681069193e-01
1.424999952316284180e+00 -5.928571309362140607e-02 3.557142785617283254e-01
1.424999952316284180e+00 -5.928571309362140607e-02 4.149999916553497314e-01
-1.424999952316284180e+00 0.000000000000000000e+00 -1.778571392808641627e-01
-1.424999952316284180e+00 0.000000000000000000e+00 1.778571392808642182e-01
-1.424999952316284180e+00 0.000000000000000000e+00 2.371428523744856243e-01
-1.221428530556815106e+00 0.000000000000000000e+00 -3.557142785617283254e-01
-1.221428530556815106e+00 0.000000000000000000e+00 -2.964285654681069193e-01
-1.221428530556815106e+00 0.000000000000000000e+00 -2.371428523744855688e-01
-1.221428530556815106e+00 0.000000000000000000e+00 -1.778571392808641627e-01
-1.221428530556815106e+00 0.000000000000000000e+00 -1.185714261872427566e-01
-1.221428530556815106e+00 0.000000000000000000e+00 -5.928571309362140607e-02
-1.221428530556815106e+00 0.000000000000000000e+00 0.000000000000000000e+00
-1.221428530556815106e+00 0.000000000000000000e+00 5.928571309362140607e-02
-1.221428530556815106e+00 0.000000000000000000e+00 1.185714261872428121e-01
-1.221428530556815106e+00 0.000000000000000000e+00 1.778571392808642182e-01
-1.221428530556815106e+00 0.000000000000000000e+00 2.371428523744856243e-01
-1.221428530556815106e+00 0.000000000000000000e+00 2.964285654681069193e-01
-1.221428530556815106e+00 0.000000000000000000e+00 3.557142785617283254e-01
-1.017857108797345811e+00 0.000000000000000000e+00 -3.557142785617283254e-01
-1.017857108797345811e+00 0.000000000000000000e+00 -2.964285654681069193e-01
-1.017857108797345811e+00 0.000000000000000000e+00 -2.371428523744855688e-01
-1.017857108797345811e+00 0.000000000000000000e+00 -1.778571392808641627e-01
-1.017857108797345811e+00 0.000000000000000000e+00 -1.185714261872427566e-01
-1.017857108797345811e+00 0.000000000000000000e+00 -5.928571309362140607e-02
-1.017857108797345811e+00 0.000000000000000000e+00 0.000000000000000000e+00
-1.017857108797345811e+00 0.000000000000000000e+00 5.928571309362140607e-02
-1.017857108797345811e+00 0.000000000000000000e+00 1.185714261872428121e-01
-1.017857108797345811e+00 0.000000000000000000e+00 1.778571392808642182e-01
-1.017857108797345811e+00 0.000000000000000000e+00 2.371428523744856243e-01
-1.017857108797345811e+00 0.000000000000000000e+00 2.964285654681069193e-01
-1.017857108797345811e+00 0.000000000000000000e+00 3.557142785617283254e-01
-8.142856870378767375e-01 0.000000000000000000e+00 -3.557142785617283254e-01
-8.142856870378767375e-01 0.000000000000000000e+00 -2.964285654681069193e-01
-8.142856870378767375e-01 0.000000000000000000e+00 -2.371428523744855688e-01
-8.142856870378767375e-01 0.000000000000000000e+00 -1.778571392808641627e-01
-8.142856870378767375e-01 0.000000000000000000e+00 -1.185714261872427566e-01
-8.142856870378767375e-01 0.000000000000000000e+00 -5.928571309362140607e-02
-8.142856870378767375e-01 0.000000000000000000e+00 0.000000000000000000e+00
-8.142856870378767375e-01 0.000000000000000000e+00 5.928571309362140607e-02
-8.142856870378767375e-01 0.000000000000000000e+00 1.185714261872428121e-01
-8.142856870378767375e-01 0.000000000000000000e+00 1.778571392808642182e-01
-8.142856870378767375e-01 0.000000000000000000e+00 2.371428523744856243e-01
-8.142856870378767375e-01 0.000000000000000000e+00 2.964285654681069193e-01
-8.142856870378767375e-01 0.000000000000000000e+00 3.557142785617283254e-01
-8.142856870378767375e-01 0.000000000000000000e+00 4.149999916553497314e-01
-6.107142652784075532e-01 0.000000000000000000e+00 -3.557142785617283254e-01
-6.107142652784075532e-01 0.000000000000000000e+00 -2.964285654681069193e-01
-6.107142652784075532e-01 0.000000000000000000e+00 -2.371428523744855688e-01
-6.107142652784075532e-01 0.000000000000000000e+00 -1.778571392808641627e-01
-6.107142652784075532e-01 0.000000000000000000e+00 -1.185714261872427566e-01
-6.107142652784075532e-01 0.000000000000000000e+00 -5.928571309362140607e-02
-6.107142652784075532e-01 0.000000000000000000e+00 0.000000000000000000e+00
-6.107142652784075532e-01 0.000000000000000000e+00 5.928571309362140607e-02
-6.107142652784075532e-01 0.000000000000000000e+00 1.185714261872428121e-01
-6.107142652784075532e-01 0.000000000000000000e+00 1.778571392808642182e-01
-6.107142652784075532e-01 0.000000000000000000e+00 2.371428523744856243e-01
-6.107142652784075532e-01 0.000000000000000000e+00 2.964285654681069193e-01
-6.107142652784075532e-01 0.000000000000000000e+00 3.557142785617283254e-01
-4.071428435189383688e-01 0.000000000000000000e+00 -3.557142785617283254e-01
-4.071428435189383688e-01 0.000000000000000000e+00 -2.964285654681069193e-01
-4.071428435189383688e-01 0.000000000000000000e+00 -2.371428523744855688e-01
-4.071428435189383688e-01 0.000000000000000000e+00 -1.778571392808641627e-01
-4.071428435189383688e-01 0.000000000000000000e+00 -1.185714261872427566e-01
-4.071428435189383688e-01 0.000000000000000000e+00 -5.928571309362140607e-02
-4.071428435189383688e-01 0.000000000000000000e+00 0.000000000000000000e+00
-4.071428435189383688e-01 0.000000000000000000e+00 5.928571309362140607e-02
-4.071428435189383688e-01 0.000000000000000000e+00 1.185714261872428121e-01
-4.071428435189383688e-01 0.000000000000000000e+00 1.778571392808642182e-01
-4.071428435189383688e-01 0.000000000000000000e+00 2.371428523744856243e-01
-4.071428435189383688e-01 0.000000000000000000e+00 2.964285654681069193e-01
-4.071428435189383688e-01 0.000000000000000000e+00 3.557142785617283254e-01
-2.035714217594692954e-01 0.000000000000000000e+00 -3.557142785617283254e-01
-2.035714217594692954e-01 0.000000000000000000e+00 -2.964285654681069193e-01
-2.035714217594692954e-01 0.000000000000000000e+00 -2.371428523744855688e-01
-2.035714217594692954e-01 0.000000000000000000e+00 -1.778571392808641627e-01
-2.035714217594692954e-01 0.000000000000000000e+00 -1.185714261872427566e-01
-2.035714217594692954e-01 0.000000000000000000e+00 -5.928571309362140607e-02
-2.035714217594692954e-01 0.000000000000000000e+00 0.000000000000000000e+00
-2.035714217594692954e-01 0.000000000000000000e+00 5.928571309362140607e-02
-2.035714217594692954e-01 0.000000000000000000e+00 1.185714261872428121e-01
-2.035714217594692954e-01 0.000000000000000000e+00 1.778571392808642182e-01
-2.035714217594692954e-01 0.000000000000000000e+00 2.371428523744856243e-01
-2.035714217594692954e-01 0.000000000000000000e+00 2.964285654681069193e-01
-2.035714217594692954e-01 0.000000000000000000e+00 3.557142785617283254e-01
0.000000000000000000e+00 0.000000000000000000e+00 -3.557142785617283254e-01
0.000000000000000000e+00 0.000000000000000000e+00 -2.964285654681069193e-01
0.000000000000000000e+00 0.000000000000000000e+00 -2.371428523744855688e-01
0.000000000000000000e+00 0.000000000000000000e+00 -1.778571392808641627e-01
0.000000000000000000e+00 0.000000000000000000e+00 -1.185714261872427566e-01
0.000000000000000000e+00 0.000000000000000000e+00 -5.928571309362140607e-02
0.000000000000000000e+00 0.000000000000000000e+00 0.000000000000000000e+00
0.000000000000000000e+00 0.000000000000000000e+00 5.928571309362140607e-02
0.000000000000000000e+00 0.000000000000000000e+00 1.185714261872428121e-01
0.000000000000000000e+00 0.000000000000000000e+00 1.778571392808642182e-01
0.000000000000000000e+00 0.000000000000000000e+00 2.371428523744856243e-01
0.000000000000000000e+00 0.000000000000000000e+00 2.964285654681069193e-01
0.000000000000000000e+00 0.000000000000000000e+00 3.557142785617283254e-01
2.035714217594690734e-01 0.000000000000000000e+00 -3.557142785617283254e-01
2.035714217594690734e-01 0.000000000000000000e+00 -2.964285654681069193e-01
2.035714217594690734e-01 0.000000000000000000e+00 -2.371428523744855688e-01
2.035714217594690734e-01 0.000000000000000000e+00 -1.778571392808641627e-01
2.035714217594690734e-01 0.000000000000000000e+00 -1.185714261872427566e-01
2.035714217594690734e-01 0.000000000000000000e+00 -5.928571309362140607e-02
2.035714217594690734e-01 0.000000000000000000e+00 0.000000000000000000e+00
2.035714217594690734e-01 0.000000000000000000e+00 5.928571309362140607e-02
2.035714217594690734e-01 0.000000000000000000e+00 1.185714261872428121e-01
2.035714217594690734e-01 0.000000000000000000e+00 1.778571392808642182e-01
2.035714217594690734e-01 0.000000000000000000e+00 2.371428523744856243e-01
2.035714217594690734e-01 0.000000000000000000e+00 2.964285654681069193e-01
2.035714217594690734e-01 0.000000000000000000e+00 3.557142785617283254e-01
4.071428435189381467e-01 0.000000000000000000e+00 -3.557142785617283254e-01
4.071428435189381467e-01 0.000000000000000000e+00 -2.964285654681069193e-01
4.071428435189381467e-01 0.000000000000000000e+00 -2.371428523744855688e-01
4.071428435189381467e-01 0.000000000000000000e+00 -1.778571392808641627e-01
4.071428435189381467e-01 0.000000000000000000e+00 -1.185714261872427566e-01
4.071428435189381467e-01 0.000000000000000000e+00 -5.928571309362140607e-02
4.071428435189381467e-01 0.000000000000000000e+00 0.000000000000000000e+00
4.071428435189381467e-01 0.000000000000000000e+00 5.928571309362140607e-02
4.071428435189381467e-01 0.000000000000000000e+00 1.185714261872428121e-01
4.071428435189381467e-01 0.000000000000000000e+00 1.778571392808642182e-01
4.071428435189381467e-01 0.000000000000000000e+00 2.371428523744856243e-01
4.071428435189381467e-01 0.000000000000000000e+00 2.964285654681069193e-01
4.071428435189381467e-01 0.000000000000000000e+00 3.557142785617283254e-01
6.107142652784074421e-01 0.000000000000000000e+00 -3.557142785617283254e-01
6.107142652784074421e-01 0.000000000000000000e+00 -2.964285654681069193e-01
6.107142652784074421e-01 0.000000000000000000e+00 -2.371428523744855688e-01
6.107142652784074421e-01 0.000000000000000000e+00 -1.778571392808641627e-01
6.107142652784074421e-01 0.000000000000000000e+00 -1.185714261872427566e-01
6.107142652784074421e-01 0.000000000000000000e+00 -5.928571309362140607e-02
6.107142652784074421e-01 0.000000000000000000e+00 0.000000000000000000e+00
6.107142652784074421e-01 0.000000000000000000e+00 5.928571309362140607e-02
6.107142652784074421e-01 0.000000000000000000e+00 1.185714261872428121e-01
6.107142652784074421e-01 0.000000000000000000e+00 1.778571392808642182e-01
6.107142652784074421e-01 0.000000000000000000e+00 2.371428523744856243e-01
6.107142652784074421e-01 0.000000000000000000e+00 2.964285654681069193e-01
6.107142652784074421e-01 0.000000000000000000e+00 3.557142785617283254e-01
8.142856870378767375e-01 0.000000000000000000e+00 -3.557142785617283254e-01
8.142856870378767375e-01 0.000000000000000000e+00 -2.964285654681069193e-01
8.142856870378767375e-01 0.000000000000000000e+00 -2.371428523744855688e-01
8.142856870378767375e-01 0.000000000000000000e+00 -1.778571392808641627e-01
8.142856870378767375e-01 0.000000000000000000e+00 -1.185714261872427566e-01
8.142856870378767375e-01 0.000000000000000000e+00 -5.928571309362140607e-02
8.142856870378767375e-01 0.000000000000000000e+00 0.000000000000000000e+00
8.142856870378767375e-01 0.000000000000000000e+00 5.928571309362140607e-02
8.142856870378767375e-01 0.000000000000000000e+00 1.185714261872428121e-01
8.142856870378767375e-01 0.000000000000000000e+00 1.778571392808642182e-01
8.142856870378767375e-01 0.000000000000000000e+00 2.371428523744856243e-01
8.142856870378767375e-01 0.000000000000000000e+00 2.964285654681069193e-01
8.142856870378767375e-01 0.000000000000000000e+00 3.557142785617283254e-01
8.142856870378767375e-01 0.000000000000000000e+00 4.149999916553497314e-01
1.017857108797345589e+00 0.000000000000000000e+00 -3.557142785617283254e-01
1.017857108797345589e+00 0.000000000000000000e+00 -2.964285654681069193e-01
1.017857108797345589e+00 0.000000000000000000e+00 -2.371428523744855688e-01
1.017857108797345589e+00 0.000000000000000000e+00 -1.778571392808641627e-01
1.017857108797345589e+00 0.000000000000000000e+00 -1.185714261872427566e-01
1.017857108797345589e+00 0.000000000000000000e+00 -5.928571309362140607e-02
1.017857108797345589e+00 0.000000000000000000e+00 0.000000000000000000e+00
1.017857108797345589e+00 0.000000000000000000e+00 5.928571309362140607e-02
1.017857108797345589e+00 0.000000000000000000e+00 1.185714261872428121e-01
1.017857108797345589e+00 0.000000000000000000e+00 1.778571392808642182e-01
1.017857108797345589e+00 0.000000000000000000e+00 2.371428523744856243e-01
1.017857108797345589e+00 0.000000000000000000e+00 2.964285654681069193e-01
1.017857108797345589e+00 0.000000000000000000e+00 3.557142785617283254e-01
1.221428530556814884e+00 0.000000000000000000e+00 -3.557142785617283254e-01
1.221428530556814884e+00 0.000000000000000000e+00 -2.964285654681069193e-01
1.221428530556814884e+00 0.000000000000000000e+00 -2.371428523744855688e-01
1.221428530556814884e+00 0.000000000000000000e+00 -1.778571392808641627e-01
1.221428530556814884e+00 0.000000000000000000e+00 -1.185714261872427566e-01
1.221428530556814884e+00 0.000000000000000000e+00 -5.928571309362140607e-02
1.221428530556814884e+00 0.000000000000000000e+00 0.000000000000000000e+00
1.221428530556814884e+00 0.000000000000000000e+00 5.928571309362140607e-02
1.221428530556814884e+00 0.000000000000000000e+00 1.185714261872428121e-01
1.221428530556814884e+00 0.000000000000000000e+00 1.778571392808642182e-01
1.221428530556814884e+00 0.000000000000000000e+00 2.371428523744856243e-01
1.221428530556814884e+00 0.000000000000000000e+00 2.964285654681069193e-01
1.221428530556814884e+00 0.000000000000000000e+00 3.557142785617283254e-01
1.424999952316284180e+00 0.000000000000000000e+00 -1.778571392808641627e-01
1.424999952316284180e+00 0.000000000000000000e+00 1.778571392808642182e-01
1.424999952316284180e+00 0.000000000000000000e+00 2.371428523744856243e-01
-1.424999952316284180e+00 5.928571309362140607e-02 -4.149999916553497314e-01
-1.424999952316284180e+00 5.928571309362140607e-02 -3.557142785617283254e-01
-1.424999952316284180e+00 5.928571309362140607e-02 -2.964285654681069193e-01
-1.424999952316284180e+00 5.928571309362140607e-02 -2.371428523744855688e-01
-1.424999952316284180e+00 5.928571309362140607e-02 -1.778571392808641627e-01
-1.424999952316284180e+00 5.928571309362140607e-02 -1.185714261872427566e-01
-1.424999952316284180e+00 5.928571309362140607e-02 -5.928571309362140607e-02
-1.424999952316284180e+00 5.928571309362140607e-02 1.185714261872428121e-01
-1.424999952316284180e+00 5.928571309362140607e-02 1.778571392808642182e-01
-1.424999952316284180e+00 5.928571309362140607e-02 2.371428523744856243e-01
-1.424999952316284180e+00 5.928571309362140607e-02 3.557142785617283254e-01
-1.424999952316284180e+00 5.928571309362140607e-02 4.149999916553497314e-01
-1.221428530556815106e+00 5.928571309362140607e-02 -4.149999916553497314e-01
-1.221428530556815106e+00 5.928571309362140607e-02 -3.557142785617283254e-01
-1.221428530556815106e+00 5.928571309362140607e-02 -2.964285654681069193e-01
-1.221428530556815106e+00 5.928571309362140607e-02 -2.371428523744855688e-01
-1.221428530556815106e+00 5.928571309362140607e-02 -1.778571392808641627e-01
-1.221428530556815106e+00 5.928571309362140607e-02 -1.185714261872427566e-01
-1.221428530556815106e+00 5.928571309362140607e-02 -5.928571309362140607e-02
-1.221428530556815106e+00 5.928571309362140607e-02 0.000000000000000000e+00
-1.221428530556815106e+00 5.928571309362140607e-02 5.928571309362140607e-02
-1.221428530556815106e+00 5.928571309362140607e-02 1.185714261872428121e-01
-1.221428530556815106e+00 5.928571309362140607e-02 1.778571392808642182e-01
-1.221428530556815106e+00 5.928571309362140607e-02 2.371428523744856243e-01
-1.221428530556815106e+00 5.928571309362140607e-02 2.964285654681069193e-01
-1.221428530556815106e+00 5.928571309362140607e-02 3.557142785617283254e-01
-1.221428530556815106e+00 5.928571309362140607e-02 4.149999916553497314e-01
-1.017857108797345811e+00 5.928571309362140607e-02 -4.149999916553497314e-01
-1.017857108797345811e+00 5.928571309362140607e-02 -3.557142785617283254e-01
-1.017857108797345811e+00 5.928571309362140607e-02 -2.964285654681069193e-01
-1.017857108797345811e+00 5.928571309362140607e-02 -2.371428523744855688e-01
-1.017857108797345811e+00 5.928571309362140607e-02 -1.778571392808641627e-01
-1.017857108797345811e+00 5.928571309362140607e-02 -1.185714261872427566e-01
-1.017857108797345811e+00 5.928571309362140607e-02 -5.928571309362140607e-02
-1.017857108797345811e+00 5.928571309362140607e-02 0.000000000000000000e+00
-1.017857108797345811e+00 5.928571309362140607e-02 5.928571309362140607e-02
-1.017857108797345811e+00 5.928571309362140607e-02 1.185714261872428121e-01
-1.017857108797345811e+00 5.928571309362140607e-02 1.778571392808642182e-01
-1.017857108797345811e+00 5.928571309362140607e-02 2.371428523744856243e-01
-1.017857108797345811e+00 5.928571309362140607e-02 2.964285654681069193e-01
-1.017857108797345811e+00 5.928571309362140607e-02 3.557142785617283254e-01
-1.017857108797345811e+00 5.928571309362140607e-02 4.149999916553497314e-01
-8.142856870378767375e-01 5.928571309362140607e-02 -4.149999916553497314e-01
-8.142856870378767375e-01 5.928571309362140607e-02 -3.557142785617283254e-01
-8.142856870378767375e-01 5.928571309362140607e-02 -2.964285654681069193e-01
-8.142856870378767375e-01 5.928571309362140607e-02 -2.371428523744855688e-01
-8.142856870378767375e-01 5.928571309362140607e-02 -1.778571392808641627e-01
-8.142856870378767375e-01 5.928571309362140607e-02 -1.185714261872427566e-01
-8.142856870378767375e-01 5.928571309362140607e-02 -5.928571309362140607e-02
-8.142856870378767375e-01 5.928571309362140607e-02 0.000000000000000000e+00
-8.142856870378767375e-01 5.928571309362140607e-02 5.928571309362140607e-02
-8.142856870378767375e-01 5.928571309362140607e-02 1.185714261872428121e-01
-8.142856870378767375e-01 5.928571309362140607e-02 1.778571392808642182e-01
-8.142856870378767375e-01 5.928571309362140607e-02 2.371428523744856243e-01
-8.142856870378767375e-01 5.928571309362140607e-02 2.964285654681069193e-01
-8.142856870378767375e-01 5.928571309362140607e-02 3.557142785617283254e-01
-8.142856870378767375e-01 5.928571309362140607e-02 4.149999916553497314e-01
-6.107142652784075532e-01 5.928571309362140607e-02 -4.149999916553497314e-01
-6.107142652784075532e-01 5.928571309362140607e-02 -3.557142785617283254e-01
-6.107142652784075532e-01 5.928571309362140607e-02 -2.964285654681069193e-01
-6.107142652784075532e-01 5.928571309362140607e-02 -2.371428523744855688e-01
-6.107142652784075532e-01 5.928571309362140607e-02 -1.778571392808641627e-01
-6.107142652784075532e-01 5.928571309362140607e-02 -1.185714261872427566e-01
-6.107142652784075532e-01 5.928571309362140607e-02 -5.928571309362140607e-02
-6.107142652784075532e-01 5.928571309362140607e-02 0.000000000000000000e+00
-6.107142652784075532e-01 5.928571309362140607e-02 5.928571309362140607e-02
-6.107142652784075532e-01 5.928571309362140607e-02 1.185714261872428121e-01
-6.107142652784075532e-01 5.928571309362140607e-02 1.778571392808642182e-01
-6.107142652784075532e-01 5.928571309362140607e-02 2.371428523744856243e-01
-6.107142652784075532e-01 5.928571309362140607e-02 2.964285654681069193e-01
-6.107142652784075532e-01 5.928571309362140607e-02 3.557142785617283254e-01
-6.107142652784075532e-01 5.928571309362140607e-02 4.149999916553497314e-01
-4.071428435189383688e-01 5.928571309362140607e-02 -4.149999916553497314e-01
-4.071428435189383688e-01 5.928571309362140607e-02 -3.557142785617283254e-01
-4.071428435189383688e-01 5.928571309362140607e-02 -2.964285654681069193e-01
-4.071428435189383688e-01 5.928571309362140607e-02 -2.371428523744855688e-01
-4.071428435189383688e-01 5.928571309362140607e-02 -1.778571392808641627e-01
-4.071428435189383688e-01 5.928571309362140607e-02 -1.185714261872427566e-01
-4.071428435189383688e-01 5.928571309362140607e-02 -5.928571309362140607e-02
-4.071428435189383688e-01 5.928571309362140607e-02 0.000000000000000000e+00
-4.071428435189383688e-01 5.928571309362140607e-02 5.928571309362140607e-02
-4.071428435189383688e-01 5.928571309362140607e-02 1.185714261872428121e-01
-4.071428435189383688e-01 5.928571309362140607e-02 1.778571392808642182e-01
-4.071428435189383688e-01 5.928571309362140607e-02 2.371428523744856243e-01
-4.071428435189383688e-01 5.928571309362140607e-02 2.964285654681069193e-01
-4.071428435189383688e-01 5.928571309362140607e-02 3.557142785617283254e-01
-4.071428435189383688e-01 5.928571309362140607e-02 4.149999916553497314e-01
-2.035714217594692954e-01 5.928571309362140607e-02 -3.557142785617283254e-01
-2.035714217594692954e-01 5.928571309362140607e-02 -2.964285654681069193e-01
-2.035714217594692954e-01 5.928571309362140607e-02 -2.371428523744855688e-01
-2.035714217594692954e-01 5.928571309362140607e-02 -1.778571392808641627e-01
-2.035714217594692954e-01 5.928571309362140607e-02 -1.185714261872427566e-01
-2.035714217594692954e-01 5.928571309362140607e-02 -5.928571309362140607e-02
-2.035714217594692954e-01 5.928571309362140607e-02 0.000000000000000000e+00
-2.035714217594692954e-01 5.928571309362140607e-02 5.928571309362140607e-02
-2.035714217594692954e-01 5.928571309362140607e-02 1.185714261872428121e-01
-2.035714217594692954e-01 5.928571309362140607e-02 1.778571392808642182e-01
-2.035714217594692954e-01 5.928571309362140607e-02 2.371428523744856243e-01
-2.035714217594692954e-01 5.928571309362140607e-02 2.964285654681069193e-01
-2.035714217594692954e-01 5.928571309362140607e-02 3.557142785617283254e-01
0.000000000000000000e+00 5.928571309362140607e-02 -4.149999916553497314e-01
0.000000000000000000e+00 5.928571309362140607e-02 -3.557142785617283254e-01
0.000000000000000000e+00 5.928571309362140607e-02 -2.964285654681069193e-01
0.000000000000000000e+00 5.928571309362140607e-02 -2.371428523744855688e-01
0.000000000000000000e+00 5.928571309362140607e-02 -1.778571392808641627e-01
0.000000000000000000e+00 5.928571309362140607e-02 -1.185714261872427566e-01
0.000000000000000000e+00 5.928571309362140607e-02 -5.928571309362140607e-02
0.000000000000000000e+00 5.928571309362140607e-02 0.000000000000000000e+00
0.000000000000000000e+00 5.928571309362140607e-02 5.928571309362140607e-02
0.000000000000000000e+00 5.928571309362140607e-02 1.185714261872428121e-01
0.000000000000000000e+00 5.928571309362140607e-02 1.778571392808642182e-01
0.000000000000000000e+00 5.928571309362140607e-02 2.371428523744856243e-01
0.000000000000000000e+00 5.928571309362140607e-02 2.964285654681069193e-01
0.000000000000000000e+00 5.928571309362140607e-02 3.557142785617283254e-01
0.000000000000000000e+00 5.928571309362140607e-02 4.149999916553497314e-01
2.035714217594690734e-01 5.928571309362140607e-02 -4.149999916553497314e-01
2.035714217594690734e-01 5.928571309362140607e-02 -3.557142785617283254e-01
2.035714217594690734e-01 5.928571309362140607e-02 -2.964285654681069193e-01
2.035714217594690734e-01 5.928571309362140607e-02 -2.371428523744855688e-01
2.035714217594690734e-01 5.928571309362140607e-02 -1.778571392808641627e-01
2.035714217594690734e-01 5.928571309362140607e-02 -1.185714261872427566e-01
2.035714217594690734e-01 5.928571309362140607e-02 -5.928571309362140607e-02
2.035714217594690734e-01 5.928571309362140607e-02 0.000000000000000000e+00
2.035714217594690734e-01 5.928571309362140607e-02 5.928571309362140607e-02
2.035714217594690734e-01 5.928571309362140607e-02 1.185714261872428121e-01
2.035714217594690734e-01 5.928571309362140607e-02 1.778571392808642182e-01
2.035714217594690734e-01 5.928571309362140607e-02 2.371428523744856243e-01
2.035714217594690734e-01 5.928571309362140607e-02 2.964285654681069193e-01
2.035714217594690734e-01 5.928571309362140607e-02 3.557142785617283254e-01
2.035714217594690734e-01 5.928571309362140607e-02 4.149999916553497314e-01
4.071428435189381467e-01 5.928571309362140607e-02 -4.149999916553497314e-01
4.071428435189381467e-01 5.928571309362140607e-02 -3.557142785617283254e-01
4.071428435189381467e-01 5.928571309362140607e-02 -2.964285654681069193e-01
4.071428435189381467e-01 5.928571309362140607e-02 -2.371428523744855688e-01
4.071428435189381467e-01 5.928571309362140607e-02 -1.778571392808641627e-01
4.071428435189381467e-01 5.928571309362140607e-02 -1.185714261872427566e-01
4.071428435189381467e-01 5.928571309362140607e-02 -5.928571309362140607e-02
4.071428435189381467e-01 5.928571309362140607e-02 0.000000000000000000e+00
4.071428435189381467e-01 5.928571309362140607e-02 5.928571309362140607e-02
4.071428435189381467e-01 5.928571309362140607e-02 1.185714261872428121e-01
4.071428435189381467e-01 5.928571309362140607e-02 1.778571392808642182e-01
4.071428435189381467e-01 5.928571309362140607e-02 2.371428523744856243e-01
4.071428435189381467e-01 5.928571309362140607e-02 2.964285654681069193e-01
4.071428435189381467e-01 5.928571309362140607e-02 3.557142785617283254e-01
4.071428435189381467e-01 5.928571309362140607e-02 4.149999916553497314e-01
6.107142652784074421e-01 5.928571309362140607e-02 -4.149999916553497314e-01
6.107142652784074421e-01 5.928571309362140607e-02 -3.557142785617283254e-01
6.107142652784074421e-01 5.928571309362140607e-02 -2.964285654681069193e-01
6.107142652784074421e-01 5.928571309362140607e-02 -2.371428523744855688e-01
6.107142652784074421e-01 5.928571309362140607e-02 -1.778571392808641627e-01
6.107142652784074421e-01 5.928571309362140607e-02 -1.185714261872427566e-01
6.107142652784074421e-01 5.928571309362140607e-02 -5.928571309362140607e-02
6.107142652784074421e-01 5.928571309362140607e-02 0.000000000000000000e+00
6.107142652784074421e-01 5.928571309362140607e-02 5.928571309362140607e-02
6.107142652784074421e-01 5.928571309362140607e-02 1.185714261872428121e-01
6.107142652784074421e-01 5.928571309362140607e-02 1.778571392808642182e-01
6.107142652784074421e-01 5.928571309362140607e-02 2.371428523744856243e-01
6.107142652784074421e-01 5.928571309362140607e-02 2.964285654681069193e-01
6.107142652784074421e-01 5.928571309362140607e-02 3.557142785617283254e-01
6.107142652784074421e-01 5.928571309362140607e-02 4.149999916553497314e-01
8.142856870378767375e-01 5.928571309362140607e-02 -4.149999916553497314e-01
8.142856870378767375e-01 5.928571309362140607e-02 -3.557142785617283254e-01
8.142856870378767375e-01 5.928571309362140607e-02 -2.964285654681069193e-01
8.142856870378767375e-01 5.928571309362140607e-02 -2.371428523744855688e-01
8.142856870378767375e-01 5.928571309362140607e-02 -1.778571392808641627e-01
8.142856870378767375e-01 5.928571309362140607e-02 -1.185714261872427566e-01
8.142856870378767375e-01 5.928571309362140607e-02 -5.928571309362140607e-02
8.142856870378767375e-01 5.928571309362140607e-02 0.000000000000000000e+00
8.142856870378767375e-01 5.928571309362140607e-02 5.928571309362140607e-02
8.142856870378767375e-01 5.928571309362140607e-02 1.185714261872428121e-01
8.142856870378767375e-01 5.928571309362140607e-02 1.778571392808642182e-01
8.142856870378767375e-01 5.928571309362140607e-02 2.371428523744856243e-01
8.142856870378767375e-01 5.928571309362140607e-02 2.964285654681069193e-01
8.142856870378767375e-01 5.928571309362140607e-02 3.557142785617283254e-01
8.142856870378767375e-01 5.928571309362140607e-02 4.149999916553497314e-01
1.017857108797345589e+00 5.928571309362140607e-02 -4.149999916553497314e-01
1.017857108797345589e+00 5.928571309362140607e-02 -3.557142785617283254e-01
1.017857108797345589e+00 5.928571309362140607e-02 -2.964285654681069193e-01
1.017857108797345589e+00 5.928571309362140607e-02 -2.371428523744855688e-01
1.017857108797345589e+00 5.928571309362140607e-02 -1.778571392808641627e-01
1.017857108797345589e+00 5.928571309362140607e-02 -1.185714261872427566e-01
1.017857108797345589e+00 5.928571309362140607e-02 -5.928571309362140607e-02
1.017857108797345589e+00 5.928571309362140607e-02 0.000000000000000000e+00
1.017857108797345589e+00 5.928571309362140607e-02 5.928571309362140607e-02
1.017857108797345589e+00 5.928571309362140607e-02 1.185714261872428121e-01
1.017857108797345589e+00 5.928571309362140607e-02 1.778571392808642182e-01
1.017857108797345589e+00 5.928571309362140607e-02 2.371428523744856243e-01
1.017857108797345589e+00 5.928571309362140607e-02 2.964285654681069193e-01
1.017857108797345589e+00 5.928571309362140607e-02 3.557142785617283254e-01
1.017857108797345589e+00 5.928571309362140607e-02 4.149999916553497314e-01
1.221428530556814884e+00 5.928571309362140607e-02 -4.149999916553497314e-01
1.221428530556814884e+00 5.928571309362140607e-02 -3.557142785617283254e-01
1.221428530556814884e+00 5.928571309362140607e-02 -2.964285654681069193e-01
1.221428530556814884e+00 5.928571309362140607e-02 -2.371428523744855688e-01
1.221428530556814884e+00 5.928571309362140607e-02 -1.778571392808641627e-01
1.221428530556814884e+00 5.928571309362140607e-02 -1.185714261872427566e-01
1.221428530556814884e+00 5.928571309362140607e-02 -5.928571309362140607e-02
1.221428530556814884e+00 5.928571309362140607e-02 0.000000000000000000e+00
1.221428530556814884e+00 5.928571309362140607e-02 5.928571309362140607e-02
1.221428530556814884e+00 5.928571309362140607e-02 1.185714261872428121e-01
1.221428530556814884e+00 5.928571309362140607e-02 1.778571392808642182e-01
1.221428530556814884e+00 5.928571309362140607e-02 2.371428523744856243e-01
1.221428530556814884e+00 5.928571309362140607e-02 2.964285654681069193e-01
1.221428530556814884e+00 5.928571309362140607e-02 3.557142785617283254e-01
1.221428530556814884e+00 5.928571309362140607e-02 4.149999916553497314e-01
1.424999952316284180e+00 5.928571309362140607e-02 -4.149999916553497314e-01
1.424999952316284180e+00 5.928571309362140607e-02 -3.557142785617283254e-01
1.424999952316284180e+00 5.928571309362140607e-02 -2.964285654681069193e-01
1.424999952316284180e+00 5.928571309362140607e-02 -2.371428523744855688e-01
1.424999952316284180e+00 5.928571309362140607e-02 -1.778571392808641627e-01
1.424999952316284180e+00 5.928571309362140607e-02 -1.185714261872427566e-01
1.424999952316284180e+00 5.928571309362140607e-02 -5.928571309362140607e-02
1.424999952316284180e+00 5.928571309362140607e-02 1.185714261872428121e-01
1.424999952316284180e+00 5.928571309362140607e-02 1.778571392808642182e-01
1.424999952316284180e+00 5.928571309362140607e-02 2.371428523744856243e-01
1.424999952316284180e+00 5.928571309362140607e-02 3.557142785617283254e-01
1.424999952316284180e+00 5.928571309362140607e-02 4.149999916553497314e-01
-1.424999952316284180e+00 1.185714261872428121e-01 -1.778571392808641627e-01
-1.424999952316284180e+00 1.185714261872428121e-01 -1.185714261872427566e-01
-1.424999952316284180e+00 1.185714261872428121e-01 -5.928571309362140607e-02
-1.424999952316284180e+00 1.185714261872428121e-01 5.928571309362140607e-02
-1.424999952316284180e+00 1.185714261872428121e-01 1.778571392808642182e-01
-1.424999952316284180e+00 1.185714261872428121e-01 2.371428523744856243e-01
-1.221428530556815106e+00 1.185714261872428121e-01 -3.557142785617283254e-01
-1.221428530556815106e+00 1.185714261872428121e-01 -2.964285654681069193e-01
-1.221428530556815106e+00 1.185714261872428121e-01 -2.371428523744855688e-01
-1.221428530556815106e+00 1.185714261872428121e-01 -1.778571392808641627e-01
-1.221428530556815106e+00 1.185714261872428121e-01 -1.185714261872427566e-01
-1.221428530556815106e+00 1.185714261872428121e-01 -5.928571309362140607e-02
-1.221428530556815106e+00 1.185714261872428121e-01 0.000000000000000000e+00
-1.221428530556815106e+00 1.185714261872428121e-01 5.928571309362140607e-02
-1.221428530556815106e+00 1.185714261872428121e-01 1.185714261872428121e-01
-1.221428530556815106e+00 1.185714261872428121e-01 1.778571392808642182e-01
-1.221428530556815106e+00 1.185714261872428121e-01 2.371428523744856243e-01
-1.221428530556815106e+00 1.185714261872428121e-01 2.964285654681069193e-01
-1.221428530556815106e+00 1.185714261872428121e-01 3.557142785617283254e-01
-1.017857108797345811e+00 1.185714261872428121e-01 -4.149999916553497314e-01
-1.017857108797345811e+00 1.185714261872428121e-01 -3.557142785617283254e-01
-1.017857108797345811e+00 1.185714261872428121e-01 -2.964285654681069193e-01
-1.017857108797345811e+00 1.185714261872428121e-01 -2.371428523744855688e-01
-1.017857108797345811e+00 1.185714261872428121e-01 -1.778571392808641627e-01
-1.017857108797345811e+00 1.185714261872428121e-01 -1.185714261872427566e-01
-1.017857108797345811e+00 1.185714261872428121e-01 -5.928571309362140607e-02
-1.017857108797345811e+00 1.185714261872428121e-01 0.000000000000000000e+00
-1.017857108797345811e+00 1.185714261872428121e-01 5.928571309362140607e-02
-1.017857108797345811e+00 1.185714261872428121e-01 1.185714261872428121e-01
-1.017857108797345811e+00 1.185714261872428121e-01 1.778571392808642182e-01
-1.017857108797345811e+00 1.185714261872428121e-01 2.371428523744856243e-01
-1.017857108797345811e+00 1.185714261872428121e-01 2.964285654681069193e-01
-1.017857108797345811e+00 1.185714261872428121e-01 3.557142785617283254e-01
-8.142856870378767375e-01 1.185714261872428121e-01 -4.149999916553497314e-01
-8.142856870378767375e-01 1.185714261872428121e-01 -3.557142785617283254e-01
-8.142856870378767375e-01 1.185714261872428121e-01 -2.964285654681069193e-01
-8.142856870378767375e-01 1.185714261872428121e-01 -2.371428523744855688e-01
-8.142856870378767375e-01 1.185714261872428121e-01 -1.778571392808641627e-01
-8.142856870378767375e-01 1.185714261872428121e-01 -1.185714261872427566e-01
-8.142856870378767375e-01 1.185714261872428121e-01 -5.928571309362140607e-02
-8.142856870378767375e-01 1.185714261872428121e-01 0.000000000000000000e+00
-8.142856870378767375e-01 1.185714261872428121e-01 5.928571309362140607e-02
-8.142856870378767375e-01 1.185714261872428121e-01 1.185714261872428121e-01
-8.142856870378767375e-01 1.185714261872428121e-01 1.778571392808642182e-01
-8.142856870378767375e-01 1.185714261872428121e-01 2.371428523744856243e-01
-8.142856870378767375e-01 1.185714261872428121e-01 2.964285654681069193e-01
-8.142856870378767375e-01 1.185714261872428121e-01 3.557142785617283254e-01
-6.107142652784075532e-01 1.185714261872428121e-01 -3.557142785617283254e-01
-6.107142652784075532e-01 1.185714261872428121e-01 -2.964285654681069193e-01
-6.107142652784075532e-01 1.185714261872428121e-01 -2.371428523744855688e-01
-6.107142652784075532e-01 1.185714261872428121e-01 -1.778571392808641627e-01
-6.107142652784075532e-01 1.185714261872428121e-01 -1.185714261872427566e-01
-6.107142652784075532e-01 1.185714261872428121e-01 -5.928571309362140607e-02
-6.107142652784075532e-01 1.185714261872428121e-01 0.000000000000000000e+00
-6.107142652784075532e-01 1.185714261872428121e-01 5.928571309362140607e-02
-6.107142652784075532e-01 1.185714261872428121e-01 1.185714261872428121e-01
-6.107142652784075532e-01 1.185714261872428121e-01 1.778571392808642182e-01
-6.107142652784075532e-01 1.185714261872428121e-01 2.371428523744856243e-01
-6.107142652784075532e-01 1.185714261872428121e-01 2.964285654681069193e-01
-6.107142652784075532e-01 1.185714261872428121e-01 3.557142785617283254e-01
-4.071428435189383688e-01 1.185714261872428121e-01 -4.149999916553497314e-01
-4.071428435189383688e-01 1.185714261872428121e-01 -3.557142785617283254e-01
-4.071428435189383688e-01 1.185714261872428121e-01 -2.964285654681069193e-01
-4.071428435189383688e-01 1.185714261872428121e-01 -2.371428523744855688e-01
-4.071428435189383688e-01 1.185714261872428121e-01 -1.778571392808641627e-01
-4.071428435189383688e-01 1.185714261872428121e-01 -1.185714261872427566e-01
-4.071428435189383688e-01 1.185714261872428121e-01 -5.928571309362140607e-02
-4.071428435189383688e-01 1.185714261872428121e-01 0.000000000000000000e+00
-4.071428435189383688e-01 1.185714261872428121e-01 5.928571309362140607e-02
-4.071428435189383688e-01 1.185714261872428121e-01 1.185714261872428121e-01
-4.071428435189383688e-01 1.185714261872428121e-01 1.778571392808642182e-01
-4.071428435189383688e-01 1.185714261872428121e-01 2.371428523744856243e-01
-4.071428435189383688e-01 1.185714261872428121e-01 2.964285654681069193e-01
-4.071428435189383688e-01 1.185714261872428121e-01 3.557142785617283254e-01
-4.071428435189383688e-01 1.185714261872428121e-01 4.149999916553497314e-01
-2.035714217594692954e-01 1.185714261872428121e-01 -3.557142785617283254e-01
-2.035714217594692954e-01 1.185714261872428121e-01 -2.964285654681069193e-01
-2.035714217594692954e-01 1.185714261872428121e-01 -2.371428523744855688e-01
-2.035714217594692954e-01 1.185714261872428121e-01 -1.778571392808641627e-01
-2.035714217594692954e-01 1.185714261872428121e-01 -1.185714261872427566e-01
-2.035714217594692954e-01 1.185714261872428121e-01 -5.928571309362140607e-02
-2.035714217594692954e-01 1.185714261872428121e-01 0.000000000000000000e+00
-2.035714217594692954e-01 1.185714261872428121e-01 5.928571309362140607e-02
-2.035714217594692954e-01 1.185714261872428121e-01 1.185714261872428121e-01
-2.035714217594692954e-01 1.185714261872428121e-01 1.778571392808642182e-01
-2.035714217594692954e-01 1.185714261872428121e-01 2.371428523744856243e-01
-2.035714217594692954e-01 1.185714261872428121e-01 2.964285654681069193e-01
-2.035714217594692954e-01 1.185714261872428121e-01 3.557142785617283254e-01
0.000000000000000000e+00 1.185714261872428121e-01 -4.149999916553497314e-01
0.000000000000000000e+00 1.185714261872428121e-01 -3.557142785617283254e-01
0.000000000000000000e+00 1.185714261872428121e-01 -2.964285654681069193e-01
0.000000000000000000e+00 1.185714261872428121e-01 -2.371428523744855688e-01
0.000000000000000000e+00 1.185714261872428121e-01 -1.778571392808641627e-01
0.000000000000000000e+00 1.185714261872428121e-01 -1.185714261872427566e-01
