3.546428510120935851e-01 3.927857024329051150e-01 0.000000000000000000e+00
3.546428510120935851e-01 3.927857024329051150e-01 1.309285674776350383e-01
3.546428510120935851e-01 3.927857024329051150e-01 2.618571349552700767e-01
3.546428510120935851e-01 3.927857024329051150e-01 3.927857024329051150e-01
3.546428510120935851e-01 3.927857024329051150e-01 5.237142699105399313e-01
3.546428510120935851e-01 3.927857024329051150e-01 6.546428373881749696e-01
3.546428510120935851e-01 3.927857024329051150e-01 7.855714048658100079e-01
3.546428510120935851e-01 3.927857024329051150e-01 9.164999723434448242e-01
4.728571346827914468e-01 3.927857024329051150e-01 -7.855714048658097859e-01
4.728571346827914468e-01 3.927857024329051150e-01 -6.546428373881748586e-01
4.728571346827914468e-01 3.927857024329051150e-01 -5.237142699105399313e-01
4.728571346827914468e-01 3.927857024329051150e-01 -3.927857024329048929e-01
4.728571346827914468e-01 3.927857024329051150e-01 -2.618571349552698546e-01
4.728571346827914468e-01 3.927857024329051150e-01 -1.309285674776349273e-01
4.728571346827914468e-01 3.927857024329051150e-01 0.000000000000000000e+00
4.728571346827914468e-01 3.927857024329051150e-01 1.309285674776350383e-01
4.728571346827914468e-01 3.927857024329051150e-01 2.618571349552700767e-01
4.728571346827914468e-01 3.927857024329051150e-01 3.927857024329051150e-01
4.728571346827914468e-01 3.927857024329051150e-01 5.237142699105399313e-01
4.728571346827914468e-01 3.927857024329051150e-01 6.546428373881749696e-01
4.728571346827914468e-01 3.927857024329051150e-01 7.855714048658100079e-01
5.910714183534895305e-01 3.927857024329051150e-01 -7.855714048658097859e-01
5.910714183534895305e-01 3.927857024329051150e-01 -6.546428373881748586e-01
5.910714183534895305e-01 3.927857024329051150e-01 -5.237142699105399313e-01
5.910714183534895305e-01 3.927857024329051150e-01 -3.927857024329048929e-01
5.910714183534895305e-01 3.927857024329051150e-01 -2.618571349552698546e-01
5.910714183534895305e-01 3.927857024329051150e-01 -1.309285674776349273e-01
5.910714183534895305e-01 3.927857024329051150e-01 0.000000000000000000e+00
5.910714183534895305e-01 3.927857024329051150e-01 1.309285674776350383e-01
5.910714183534895305e-01 3.927857024329051150e-01 2.618571349552700767e-01
5.910714183534895305e-01 3.927857024329051150e-01 3.927857024329051150e-01
5.910714183534895305e-01 3.927857024329051150e-01 5.237142699105399313e-01
5.910714183534895305e-01 3.927857024329051150e-01 6.546428373881749696e-01
5.910714183534895305e-01 3.927857024329051150e-01 7.855714048658100079e-01
7.092857020241873922e-01 3.927857024329051150e-01 -7.855714048658097859e-01
7.092857020241873922e-01 3.927857024329051150e-01 -6.546428373881748586e-01
7.092857020241873922e-01 3.927857024329051150e-01 -5.237142699105399313e-01
7.092857020241873922e-01 3.927857024329051150e-01 -3.927857024329048929e-01
7.092857020241873922e-01 3.927857024329051150e-01 -2.618571349552698546e-01
7.092857020241873922e-01 3.927857024329051150e-01 -1.309285674776349273e-01
7.092857020241873922e-01 3.927857024329051150e-01 0.000000000000000000e+00
7.092857020241873922e-01 3.927857024329051150e-01 1.309285674776350383e-01
7.092857020241873922e-01 3.927857024329051150e-01 2.618571349552700767e-01
7.092857020241873922e-01 3.927857024329051150e-01 3.927857024329051150e-01
7.092857020241873922e-01 3.927857024329051150e-01 5.237142699105399313e-01
7.092857020241873922e-01 3.927857024329051150e-01 6.546428373881749696e-01
7.092857020241873922e-01 3.927857024329051150e-01 7.855714048658100079e-01
8.274999856948852539e-01 3.927857024329051150e-01 -5.237142699105399313e-01
8.274999856948852539e-01 3.927857024329051150e-01 -3.927857024329048929e-01
8.274999856948852539e-01 3.927857024329051150e-01 -1.309285674776349273e-01
8.274999856948852539e-01 3.927857024329051150e-01 0.000000000000000000e+00
8.274999856948852539e-01 3.927857024329051150e-01 1.309285674776350383e-01
8.274999856948852539e-01 3.927857024329051150e-01 2.618571349552700767e-01
-8.274999856948852539e-01 5.237142699105399313e-01 -3.927857024329048929e-01
-8.274999856948852539e-01 5.237142699105399313e-01 -1.309285674776349273e-01
-8.274999856948852539e-01 5.237142699105399313e-01 0.000000000000000000e+00
-8.274999856948852539e-01 5.237142699105399313e-01 1.309285674776350383e-01
-7.092857020241873922e-01 5.237142699105399313e-01 -7.855714048658097859e-01
-7.092857020241873922e-01 5.237142699105399313e-01 -6.546428373881748586e-01
-7.092857020241873922e-01 5.237142699105399313e-01 -5.237142699105399313e-01
-7.092857020241873922e-01 5.237142699105399313e-01 -3.927857024329048929e-01
-7.092857020241873922e-01 5.237142699105399313e-01 -2.618571349552698546e-01
-7.092857020241873922e-01 5.237142699105399313e-01 -1.309285674776349273e-01
-7.092857020241873922e-01 5.237142699105399313e-01 0.000000000000000000e+00
-7.092857020241873922e-01 5.237142699105399313e-01 1.309285674776350383e-01
-7.092857020241873922e-01 5.237142699105399313e-01 2.618571349552700767e-01
-7.092857020241873922e-01 5.237142699105399313e-01 3.927857024329051150e-01
-7.092857020241873922e-01 5.237142699105399313e-01 5.237142699105399313e-01
-7.092857020241873922e-01 5.237142699105399313e-01 6.546428373881749696e-01
-7.092857020241873922e-01 5.237142699105399313e-01 7.855714048658100079e-01
-5.910714183534895305e-01 5.237142699105399313e-01 -9.164999723434448242e-01
-5.910714183534895305e-01 5.237142699105399313e-01 -7.855714048658097859e-01
-5.910714183534895305e-01 5.237142699105399313e-01 -6.546428373881748586e-01
-5.910714183534895305e-01 5.237142699105399313e-01 -5.237142699105399313e-01
-5.910714183534895305e-01 5.237142699105399313e-01 -3.927857024329048929e-01
-5.910714183534895305e-01 5.237142699105399313e-01 -2.618571349552698546e-01
-5.910714183534895305e-01 5.237142699105399313e-01 -1.309285674776349273e-01
-5.910714183534895305e-01 5.237142699105399313e-01 0.000000000000000000e+00
-5.910714183534895305e-01 5.237142699105399313e-01 1.309285674776350383e-01
-5.910714183534895305e-01 5.237142699105399313e-01 2.618571349552700767e-01
-5.910714183534895305e-01 5.237142699105399313e-01 3.927857024329051150e-01
-5.910714183534895305e-01 5.237142699105399313e-01 5.237142699105399313e-01
-5.910714183534895305e-01 5.237142699105399313e-01 6.546428373881749696e-01
-5.910714183534895305e-01 5.237142699105399313e-01 7.855714048658100079e-01
-5.910714183534895305e-01 5.237142699105399313e-01 9.164999723434448242e-01
-4.728571346827915578e-01 5.237142699105399313e-01 -9.164999723434448242e-01
-4.728571346827915578e-01 5.237142699105399313e-01 -7.855714048658097859e-01
-4.728571346827915578e-01 5.237142699105399313e-01 -6.546428373881748586e-01
-4.728571346827915578e-01 5.237142699105399313e-01 -5.237142699105399313e-01
-4.728571346827915578e-01 5.237142699105399313e-01 -3.927857024329048929e-01
-4.728571346827915578e-01 5.237142699105399313e-01 -2.618571349552698546e-01
-4.728571346827915578e-01 5.237142699105399313e-01 -1.309285674776349273e-01
-4.728571346827915578e-01 5.237142699105399313e-01 0.000000000000000000e+00
-4.728571346827915578e-01 5.237142699105399313e-01 1.309285674776350383e-01
-4.728571346827915578e-01 5.237142699105399313e-01 2.618571349552700767e-01
-4.728571346827915578e-01 5.237142699105399313e-01 3.927857024329051150e-01
-4.728571346827915578e-01 5.237142699105399313e-01 5.237142699105399313e-01
-4.728571346827915578e-01 5.237142699105399313e-01 6.546428373881749696e-01
-4.728571346827915578e-01 5.237142699105399313e-01 7.855714048658100079e-01
-4.728571346827915578e-01 5.237142699105399313e-01 9.164999723434448242e-01
-3.546428510120936961e-01 5.237142699105399313e-01 -9.164999723434448242e-01
-3.546428510120936961e-01 5.237142699105399313e-01 -7.855714048658097859e-01
-3.546428510120936961e-01 5.237142699105399313e-01 -6.546428373881748586e-01
-3.546428510120936961e-01 5.237142699105399313e-01 -5.237142699105399313e-01
-3.546428510120936961e-01 5.237142699105399313e-01 -3.927857024329048929e-01
-3.546428510120936961e-01 5.237142699105399313e-01 -2.618571349552698546e-01
-3.546428510120936961e-01 5.237142699105399313e-01 -1.309285674776349273e-01
-3.546428510120936961e-01 5.237142699105399313e-01 0.000000000000000000e+00
-3.546428510120936961e-01 5.237142699105399313e-01 1.309285674776350383e-01
-3.546428510120936961e-01 5.237142699105399313e-01 2.618571349552700767e-01
-3.546428510120936961e-01 5.237142699105399313e-01 3.927857024329051150e-01
-3.546428510120936961e-01 5.237142699105399313e-01 5.237142699105399313e-01
-3.546428510120936961e-01 5.237142699105399313e-01 6.546428373881749696e-01
-3.546428510120936961e-01 5.237142699105399313e-01 7.855714048658100079e-01
-3.546428510120936961e-01 5.237142699105399313e-01 9.164999723434448242e-01
-2.364285673413958344e-01 5.237142699105399313e-01 -9.164999723434448242e-01
-2.364285673413958344e-01 5.237142699105399313e-01 -7.855714048658097859e-01
-2.364285673413958344e-01 5.237142699105399313e-01 -6.546428373881748586e-01
-2.364285673413958344e-01 5.237142699105399313e-01 -5.237142699105399313e-01
-2.364285673413958344e-01 5.237142699105399313e-01 -3.927857024329048929e-01
-2.364285673413958344e-01 5.237142699105399313e-01 -2.618571349552698546e-01
-2.364285673413958344e-01 5.237142699105399313e-01 -1.309285674776349273e-01
-2.364285673413958344e-01 5.237142699105399313e-01 0.000000000000000000e+00
-2.364285673413958344e-01 5.237142699105399313e-01 1.309285674776350383e-01
-2.364285673413958344e-01 5.237142699105399313e-01 2.618571349552700767e-01
-2.364285673413958344e-01 5.237142699105399313e-01 3.927857024329051150e-01
-2.364285673413958344e-01 5.237142699105399313e-01 5.237142699105399313e-01
-2.364285673413958344e-01 5.237142699105399313e-01 6.546428373881749696e-01
-2.364285673413958344e-01 5.237142699105399313e-01 7.855714048658100079e-01
-2.364285673413958344e-01 5.237142699105399313e-01 9.164999723434448242e-01
-1.182142836706978617e-01 5.237142699105399313e-01 -9.164999723434448242e-01
-1.182142836706978617e-01 5.237142699105399313e-01 -7.855714048658097859e-01
-1.182142836706978617e-01 5.237142699105399313e-01 -6.546428373881748586e-01
-1.182142836706978617e-01 5.237142699105399313e-01 -5.237142699105399313e-01
-1.182142836706978617e-01 5.237142699105399313e-01 -3.927857024329048929e-01
-1.182142836706978617e-01 5.237142699105399313e-01 -2.618571349552698546e-01
-1.182142836706978617e-01 5.237142699105399313e-01 -1.309285674776349273e-01
-1.182142836706978617e-01 5.237142699105399313e-01 0.000000000000000000e+00
-1.182142836706978617e-01 5.237142699105399313e-01 1.309285674776350383e-01
-1.182142836706978617e-01 5.237142699105399313e-01 2.618571349552700767e-01
-1.182142836706978617e-01 5.237142699105399313e-01 3.927857024329051150e-01
-1.182142836706978617e-01 5.237142699105399313e-01 5.237142699105399313e-01
-1.182142836706978617e-01 5.237142699105399313e-01 6.546428373881749696e-01
-1.182142836706978617e-01 5.237142699105399313e-01 7.855714048658100079e-01
0.000000000000000000e+00 5.237142699105399313e-01 -7.855714048658097859e-01
0.000000000000000000e+00 5.237142699105399313e-01 -6.546428373881748586e-01
0.000000000000000000e+00 5.237142699105399313e-01 -5.237142699105399313e-01
0.000000000000000000e+00 5.237142699105399313e-01 -3.927857024329048929e-01
0.000000000000000000e+00 5.237142699105399313e-01 -2.618571349552698546e-01
0.000000000000000000e+00 5.237142699105399313e-01 -1.309285674776349273e-01
0.000000000000000000e+00 5.237142699105399313e-01 0.000000000000000000e+00
0.000000000000000000e+00 5.237142699105399313e-01 1.309285674776350383e-01
0.000000000000000000e+00 5.237142699105399313e-01 2.618571349552700767e-01
0.000000000000000000e+00 5.237142699105399313e-01 3.927857024329051150e-01
0.000000000000000000e+00 5.237142699105399313e-01 5.237142699105399313e-01
0.000000000000000000e+00 5.237142699105399313e-01 6.546428373881749696e-01
0.000000000000000000e+00 5.237142699105399313e-01 7.855714048658100079e-01
1.182142836706978617e-01 5.237142699105399313e-01 -9.164999723434448242e-01
1.182142836706978617e-01 5.237142699105399313e-01 -7.855714048658097859e-01
1.182142836706978617e-01 5.237142699105399313e-01 -6.546428373881748586e-01
1.182142836706978617e-01 5.237142699105399313e-01 -5.237142699105399313e-01
1.182142836706978617e-01 5.237142699105399313e-01 -3.927857024329048929e-01
1.182142836706978617e-01 5.237142699105399313e-01 -2.618571349552698546e-01
1.182142836706978617e-01 5.237142699105399313e-01 -1.309285674776349273e-01
1.182142836706978617e-01 5.237142699105399313e-01 0.000000000000000000e+00
1.182142836706978617e-01 5.237142699105399313e-01 1.309285674776350383e-01
1.182142836706978617e-01 5.237142699105399313e-01 2.618571349552700767e-01
1.182142836706978617e-01 5.237142699105399313e-01 3.927857024329051150e-01
1.182142836706978617e-01 5.237142699105399313e-01 5.237142699105399313e-01
1.182142836706978617e-01 5.237142699105399313e-01 6.546428373881749696e-01
1.182142836706978617e-01 5.237142699105399313e-01 7.855714048658100079e-01
1.182142836706978617e-01 5.237142699105399313e-01 9.164999723434448242e-01
2.364285673413957234e-01 5.237142699105399313e-01 -7.855714048658097859e-01
2.364285673413957234e-01 5.237142699105399313e-01 -6.546428373881748586e-01
2.364285673413957234e-01 5.237142699105399313e-01 -5.237142699105399313e-01
2.364285673413957234e-01 5.237142699105399313e-01 -3.927857024329048929e-01
2.364285673413957234e-01 5.237142699105399313e-01 -2.618571349552698546e-01
2.364285673413957234e-01 5.237142699105399313e-01 -1.309285674776349273e-01
2.364285673413957234e-01 5.237142699105399313e-01 0.000000000000000000e+00
2.364285673413957234e-01 5.237142699105399313e-01 1.309285674776350383e-01
2.364285673413957234e-01 5.237142699105399313e-01 2.618571349552700767e-01
2.364285673413957234e-01 5.237142699105399313e-01 3.927857024329051150e-01
2.364285673413957234e-01 5.237142699105399313e-01 5.237142699105399313e-01
2.364285673413957234e-01 5.237142699105399313e-01 6.546428373881749696e-01
2.364285673413957234e-01 5.237142699105399313e-01 7.855714048658100079e-01
3.546428510120935851e-01 5.237142699105399313e-01 -9.164999723434448242e-01
3.546428510120935851e-01 5.237142699105399313e-01 -7.855714048658097859e-01
3.546428510120935851e-01 5.237142699105399313e-01 -6.546428373881748586e-01
3.546428510120935851e-01 5.237142699105399313e-01 -5.237142699105399313e-01
3.546428510120935851e-01 5.237142699105399313e-01 -3.927857024329048929e-01
3.546428510120935851e-01 5.237142699105399313e-01 -2.618571349552698546e-01
3.546428510120935851e-01 5.237142699105399313e-01 -1.309285674776349273e-01
3.546428510120935851e-01 5.237142699105399313e-01 0.000000000000000000e+00
3.546428510120935851e-01 5.237142699105399313e-01 1.309285674776350383e-01
3.546428510120935851e-01 5.237142699105399313e-01 2.618571349552700767e-01
3.546428510120935851e-01 5.237142699105399313e-01 3.927857024329051150e-01
3.546428510120935851e-01 5.237142699105399313e-01 5.237142699105399313e-01
3.546428510120935851e-01 5.237142699105399313e-01 6.546428373881749696e-01
3.546428510120935851e-01 5.237142699105399313e-01 7.855714048658100079e-01
3.546428510120935851e-01 5.237142699105399313e-01 9.164999723434448242e-01
4.728571346827914468e-01 5.237142699105399313e-01 -9.164999723434448242e-01
4.728571346827914468e-01 5.237142699105399313e-01 -7.855714048658097859e-01
4.728571346827914468e-01 5.237142699105399313e-01 -6.546428373881748586e-01
4.728571346827914468e-01 5.237142699105399313e-01 -5.237142699105399313e-01
4.728571346827914468e-01 5.237142699105399313e-01 -3.927857024329048929e-01
4.728571346827914468e-01 5.237142699105399313e-01 -2.618571349552698546e-01
4.728571346827914468e-01 5.237142699105399313e-01 -1.309285674776349273e-01
4.728571346827914468e-01 5.237142699105399313e-01 0.000000000000000000e+00
4.728571346827914468e-01 5.237142699105399313e-01 1.309285674776350383e-01
4.728571346827914468e-01 5.237142699105399313e-01 2.618571349552700767e-01
4.728571346827914468e-01 5.237142699105399313e-01 3.927857024329051150e-01
4.728571346827914468e-01 5.237142699105399313e-01 5.237142699105399313e-01
4.728571346827914468e-01 5.237142699105399313e-01 6.546428373881749696e-01
4.728571346827914468e-01 5.237142699105399313e-01 7.855714048658100079e-01
5.910714183534895305e-01 5.237142699105399313e-01 -7.855714048658097859e-01
5.910714183534895305e-01 5.237142699105399313e-01 -6.546428373881748586e-01
5.910714183534895305e-01 5.237142699105399313e-01 -5.237142699105399313e-01
5.910714183534895305e-01 5.237142699105399313e-01 -3.927857024329048929e-01
5.910714183534895305e-01 5.237142699105399313e-01 -2.618571349552698546e-01
5.910714183534895305e-01 5.237142699105399313e-01 -1.309285674776349273e-01
5.910714183534895305e-01 5.237142699105399313e-01 0.000000000000000000e+00
5.910714183534895305e-01 5.237142699105399313e-01 1.309285674776350383e-01
5.910714183534895305e-01 5.237142699105399313e-01 2.618571349552700767e-01
5.910714183534895305e-01 5.237142699105399313e-01 3.927857024329051150e-01
5.910714183534895305e-01 5.237142699105399313e-01 5.237142699105399313e-01
5.910714183534895305e-01 5.237142699105399313e-01 6.546428373881749696e-01
5.910714183534895305e-01 5.237142699105399313e-01 7.855714048658100079e-01
7.092857020241873922e-01 5.237142699105399313e-01 -7.855714048658097859e-01
7.092857020241873922e-01 5.237142699105399313e-01 -6.546428373881748586e-01
7.092857020241873922e-01 5.237142699105399313e-01 -5.237142699105399313e-01
7.092857020241873922e-01 5.237142699105399313e-01 -3.927857024329048929e-01
7.092857020241873922e-01 5.237142699105399313e-01 -2.618571349552698546e-01
7.092857020241873922e-01 5.237142699105399313e-01 -1.309285674776349273e-01
7.092857020241873922e-01 5.237142699105399313e-01 0.000000000000000000e+00
7.092857020241873922e-01 5.237142699105399313e-01 1.309285674776350383e-01
7.092857020241873922e-01 5.237142699105399313e-01 2.618571349552700767e-01
7.092857020241873922e-01 5.237142699105399313e-01 3.927857024329051150e-01
7.092857020241873922e-01 5.237142699105399313e-01 5.237142699105399313e-01
7.092857020241873922e-01 5.237142699105399313e-01 6.546428373881749696e-01
7.092857020241873922e-01 5.237142699105399313e-01 7.855714048658100079e-01
8.274999856948852539e-01 5.237142699105399313e-01 -3.927857024329048929e-01
8.274999856948852539e-01 5.237142699105399313e-01 -1.309285674776349273e-01
8.274999856948852539e-01 5.237142699105399313e-01 0.000000000000000000e+00
8.274999856948852539e-01 5.237142699105399313e-01 1.309285674776350383e-01
-8.274999856948852539e-01 6.546428373881749696e-01 -7.855714048658097859e-01
-8.274999856948852539e-01 6.546428373881749696e-01 -6.546428373881748586e-01
-8.274999856948852539e-01 6.546428373881749696e-01 -3.927857024329048929e-01
-8.274999856948852539e-01 6.546428373881749696e-01 -1.309285674776349273e-01
-8.274999856948852539e-01 6.546428373881749696e-01 0.000000000000000000e+00
-8.274999856948852539e-01 6.546428373881749696e-01 2.618571349552700767e-01
-7.092857020241873922e-01 6.546428373881749696e-01 -9.164999723434448242e-01
-7.092857020241873922e-01 6.546428373881749696e-01 -7.855714048658097859e-01
-7.092857020241873922e-01 6.546428373881749696e-01 -6.546428373881748586e-01
-7.092857020241873922e-01 6.546428373881749696e-01 -5.237142699105399313e-01
-7.092857020241873922e-01 6.546428373881749696e-01 -3.927857024329048929e-01
-7.092857020241873922e-01 6.546428373881749696e-01 -2.618571349552698546e-01
-7.092857020241873922e-01 6.546428373881749696e-01 -1.309285674776349273e-01
-7.092857020241873922e-01 6.546428373881749696e-01 0.000000000000000000e+00
-7.092857020241873922e-01 6.546428373881749696e-01 1.309285674776350383e-01
-7.092857020241873922e-01 6.546428373881749696e-01 2.618571349552700767e-01
-7.092857020241873922e-01 6.546428373881749696e-01 3.927857024329051150e-01
-7.092857020241873922e-01 6.546428373881749696e-01 5.237142699105399313e-01
-7.092857020241873922e-01 6.546428373881749696e-01 6.546428373881749696e-01
-7.092857020241873922e-01 6.546428373881749696e-01 7.855714048658100079e-01
-5.910714183534895305e-01 6.546428373881749696e-01 -7.855714048658097859e-01
-5.910714183534895305e-01 6.546428373881749696e-01 -6.546428373881748586e-01
-5.910714183534895305e-01 6.546428373881749696e-01 -5.237142699105399313e-01
-5.910714183534895305e-01 6.546428373881749696e-01 -3.927857024329048929e-01
-5.910714183534895305e-01 6.546428373881749696e-01 -2.618571349552698546e-01
-5.910714183534895305e-01 6.546428373881749696e-01 -1.309285674776349273e-01
-5.910714183534895305e-01 6.546428373881749696e-01 0.000000000000000000e+00
-5.910714183534895305e-01 6.546428373881749696e-01 1.309285674776350383e-01
-5.910714183534895305e-01 6.546428373881749696e-01 2.618571349552700767e-01
-5.910714183534895305e-01 6.546428373881749696e-01 3.927857024329051150e-01
-5.910714183534895305e-01 6.546428373881749696e-01 5.237142699105399313e-01
-5.910714183534895305e-01 6.546428373881749696e-01 6.546428373881749696e-01
-5.910714183534895305e-01 6.546428373881749696e-01 7.855714048658100079e-01
-4.728571346827915578e-01 6.546428373881749696e-01 -9.164999723434448242e-01
-4.728571346827915578e-01 6.546428373881749696e-01 -7.855714048658097859e-01
-4.728571346827915578e-01 6.546428373881749696e-01 -6.546428373881748586e-01
-4.728571346827915578e-01 6.546428373881749696e-01 -5.237142699105399313e-01
-4.728571346827915578e-01 6.546428373881749696e-01 -3.927857024329048929e-01
-4.728571346827915578e-01 6.546428373881749696e-01 -2.618571349552698546e-01
-4.728571346827915578e-01 6.546428373881749696e-01 -1.309285674776349273e-01
-4.728571346827915578e-01 6.546428373881749696e-01 0.000000000000000000e+00
-4.728571346827915578e-01 6.546428373881749696e-01 1.309285674776350383e-01
-4.728571346827915578e-01 6.546428373881749696e-01 2.618571349552700767e-01
-4.728571346827915578e-01 6.546428373881749696e-01 3.927857024329051150e-01
-4.728571346827915578e-01 6.546428373881749696e-01 5.237142699105399313e-01
-4.728571346827915578e-01 6.546428373881749696e-01 6.546428373881749696e-01
-4.728571346827915578e-01 6.546428373881749696e-01 7.855714048658100079e-01
-4.728571346827915578e-01 6.546428373881749696e-01 9.164999723434448242e-01
-3.546428510120936961e-01 6.546428373881749696e-01 -9.164999723434448242e-01
-3.546428510120936961e-01 6.546428373881749696e-01 -7.855714048658097859e-01
-3.546428510120936961e-01 6.546428373881749696e-01 -6.546428373881748586e-01
-3.546428510120936961e-01 6.546428373881749696e-01 -5.237142699105399313e-01
-3.546428510120936961e-01 6.546428373881749696e-01 -3.927857024329048929e-01
-3.546428510120936961e-01 6.546428373881749696e-01 -2.618571349552698546e-01
-3.546428510120936961e-01 6.546428373881749696e-01 -1.309285674776349273e-01
-3.546428510120936961e-01 6.546428373881749696e-01 0.000000000000000000e+00
-3.546428510120936961e-01 6.546428373881749696e-01 1.309285674776350383e-01
-3.546428510120936961e-01 6.546428373881749696e-01 2.618571349552700767e-01
-3.546428510120936961e-01 6.546428373881749696e-01 3.927857024329051150e-01
-3.546428510120936961e-01 6.546428373881749696e-01 5.237142699105399313e-01
-3.546428510120936961e-01 6.546428373881749696e-01 6.546428373881749696e-01
-3.546428510120936961e-01 6.546428373881749696e-01 7.855714048658100079e-01
-3.546428510120936961e-01 6.546428373881749696e-01 9.164999723434448242e-01
-2.364285673413958344e-01 6.546428373881749696e-01 -9.164999723434448242e-01
-2.364285673413958344e-01 6.546428373881749696e-01 -7.855714048658097859e-01
-2.364285673413958344e-01 6.546428373881749696e-01 -6.546428373881748586e-01
-2.364285673413958344e-01 6.546428373881749696e-01 -5.237142699105399313e-01
-2.364285673413958344e-01 6.546428373881749696e-01 -3.927857024329048929e-01
-2.364285673413958344e-01 6.546428373881749696e-01 -2.618571349552698546e-01
-2.364285673413958344e-01 6.546428373881749696e-01 -1.309285674776349273e-01
-2.364285673413958344e-01 6.546428373881749696e-01 0.000000000000000000e+00
-2.364285673413958344e-01 6.546428373881749696e-01 1.309285674776350383e-01
-2.364285673413958344e-01 6.546428373881749696e-01 2.618571349552700767e-01
-2.364285673413958344e-01 6.546428373881749696e-01 3.927857024329051150e-01
-2.364285673413958344e-01 6.546428373881749696e-01 5.237142699105399313e-01
-2.364285673413958344e-01 6.546428373881749696e-01 6.546428373881749696e-01
-2.364285673413958344e-01 6.546428373881749696e-01 7.855714048658100079e-01
-2.364285673413958344e-01 6.546428373881749696e-01 9.164999723434448242e-01
-1.182142836706978617e-01 6.546428373881749696e-01 -7.855714048658097859e-01
-1.182142836706978617e-01 6.546428373881749696e-01 -6.546428373881748586e-01
-1.182142836706978617e-01 6.546428373881749696e-01 -5.237142699105399313e-01
-1.182142836706978617e-01 6.546428373881749696e-01 -3.927857024329048929e-01
-1.182142836706978617e-01 6.546428373881749696e-01 -2.618571349552698546e-01
-1.182142836706978617e-01 6.546428373881749696e-01 -1.309285674776349273e-01
-1.182142836706978617e-01 6.546428373881749696e-01 0.000000000000000000e+00
-1.182142836706978617e-01 6.546428373881749696e-01 1.309285674776350383e-01
-1.182142836706978617e-01 6.546428373881749696e-01 2.618571349552700767e-01
-1.182142836706978617e-01 6.546428373881749696e-01 3.927857024329051150e-01
-1.182142836706978617e-01 6.546428373881749696e-01 5.237142699105399313e-01
-1.182142836706978617e-01 6.546428373881749696e-01 6.546428373881749696e-01
-1.182142836706978617e-01 6.546428373881749696e-01 7.855714048658100079e-01
0.000000000000000000e+00 6.546428373881749696e-01 -7.855714048658097859e-01
0.000000000000000000e+00 6.546428373881749696e-01 -6.546428373881748586e-01
0.000000000000000000e+00 6.546428373881749696e-01 -5.237142699105399313e-01
0.000000000000000000e+00 6.546428373881749696e-01 -3.927857024329048929e-01
0.000000000000000000e+00 6.546428373881749696e-01 -2.618571349552698546e-01
0.000000000000000000e+00 6.546428373881749696e-01 -1.309285674776349273e-01
0.000000000000000000e+00 6.546428373881749696e-01 0.000000000000000000e+00
0.000000000000000000e+00 6.546428373881749696e-01 1.309285674776350383e-01
0.000000000000000000e+00 6.546428373881749696e-01 2.618571349552700767e-01
0.000000000000000000e+00 6.546428373881749696e-01 3.927857024329051150e-01
0.000000000000000000e+00 6.546428373881749696e-01 5.237142699105399313e-01
0.000000000000000000e+00 6.546428373881749696e-01 6.546428373881749696e-01
0.000000000000000000e+00 6.546428373881749696e-01 7.855714048658100079e-01
1.182142836706978617e-01 6.546428373881749696e-01 -9.164999723434448242e-01
1.182142836706978617e-01 6.546428373881749696e-01 -7.855714048658097859e-01
1.182142836706978617e-01 6.546428373881749696e-01 -6.546428373881748586e-01
1.182142836706978617e-01 6.546428373881749696e-01 -5.237142699105399313e-01
1.182142836706978617e-01 6.546428373881749696e-01 -3.927857024329048929e-01
1.182142836706978617e-01 6.546428373881749696e-01 -2.618571349552698546e-01
1.182142836706978617e-01 6.546428373881749696e-01 -1.309285674776349273e-01
1.182142836706978617e-01 6.546428373881749696e-01 0.000000000000000000e+00
1.182142836706978617e-01 6.546428373881749696e-01 1.309285674776350383e-01
1.182142836706978617e-01 6.546428373881749696e-01 2.618571349552700767e-01
1.182142836706978617e-01 6.546428373881749696e-01 3.927857024329051150e-01
1.182142836706978617e-01 6.546428373881749696e-01 5.237142699105399313e-01
1.182142836706978617e-01 6.546428373881749696e-01 6.546428373881749696e-01
1.182142836706978617e-01 6.546428373881749696e-01 7.855714048658100079e-01
1.182142836706978617e-01 6.546428373881749696e-01 9.164999723434448242e-01
2.364285673413957234e-01 6.546428373881749696e-01 -7.855714048658097859e-01
2.364285673413957234e-01 6.546428373881749696e-01 -6.546428373881748586e-01
2.364285673413957234e-01 6.546428373881749696e-01 -5.237142699105399313e-01
2.364285673413957234e-01 6.546428373881749696e-01 -3.927857024329048929e-01
2.364285673413957234e-01 6.546428373881749696e-01 -2.618571349552698546e-01
2.364285673413957234e-01 6.546428373881749696e-01 -1.309285674776349273e-01
2.364285673413957234e-01 6.546428373881749696e-01 0.000000000000000000e+00
2.364285673413957234e-01 6.546428373881749696e-01 1.309285674776350383e-01
2.364285673413957234e-01 6.546428373881749696e-01 2.618571349552700767e-01
2.364285673413957234e-01 6.546428373881749696e-01 3.927857024329051150e-01
2.364285673413957234e-01 6.546428373881749696e-01 5.237142699105399313e-01
2.364285673413957234e-01 6.546428373881749696e-01 6.546428373881749696e-01
2.364285673413957234e-01 6.546428373881749696e-01 7.855714048658100079e-01
3.546428510120935851e-01 6.546428373881749696e-01 -9.164999723434448242e-01
3.546428510120935851e-01 6.546428373881749696e-01 -7.855714048658097859e-01
3.546428510120935851e-01 6.546428373881749696e-01 -6.546428373881748586e-01
3.546428510120935851e-01 6.546428373881749696e-01 -5.237142699105399313e-01
3.546428510120935851e-01 6.546428373881749696e-01 -3.927857024329048929e-01
3.546428510120935851e-01 6.546428373881749696e-01 -2.618571349552698546e-01
3.546428510120935851e-01 6.546428373881749696e-01 -1.309285674776349273e-01
3.546428510120935851e-01 6.546428373881749696e-01 0.000000000000000000e+00
3.546428510120935851e-01 6.546428373881749696e-01 1.309285674776350383e-01
3.546428510120935851e-01 6.546428373881749696e-01 2.618571349552700767e-01
3.546428510120935851e-01 6.546428373881749696e-01 3.927857024329051150e-01
3.546428510120935851e-01 6.546428373881749696e-01 5.237142699105399313e-01
3.546428510120935851e-01 6.546428373881749696e-01 6.546428373881749696e-01
3.546428510120935851e-01 6.546428373881749696e-01 7.855714048658100079e-01
3.546428510120935851e-01 6.546428373881749696e-01 9.164999723434448242e-01
4.728571346827914468e-01 6.546428373881749696e-01 -7.855714048658097859e-01
4.728571346827914468e-01 6.546428373881749696e-01 -6.546428373881748586e-01
4.728571346827914468e-01 6.546428373881749696e-01 -5.237142699105399313e-01
4.728571346827914468e-01 6.546428373881749696e-01 -3.927857024329048929e-01
4.728571346827914468e-01 6.546428373881749696e-01 -2.618571349552698546e-01
4.728571346827914468e-01 6.546428373881749696e-01 -1.309285674776349273e-01
4.728571346827914468e-01 6.546428373881749696e-01 0.000000000000000000e+00
4.728571346827914468e-01 6.546428373881749696e-01 1.309285674776350383e-01
4.728571346827914468e-01 6.546428373881749696e-01 2.618571349552700767e-01
4.728571346827914468e-01 6.546428373881749696e-01 3.927857024329051150e-01
4.728571346827914468e-01 6.546428373881749696e-01 5.237142699105399313e-01
4.728571346827914468e-01 6.546428373881749696e-01 6.546428373881749696e-01
4.728571346827914468e-01 6.546428373881749696e-01 7.855714048658100079e-01
5.910714183534895305e-01 6.546428373881749696e-01 -7.855714048658097859e-01
5.910714183534895305e-01 6.546428373881749696e-01 -6.546428373881748586e-01
5.910714183534895305e-01 6.546428373881749696e-01 -5.237142699105399313e-01
5.910714183534895305e-01 6.546428373881749696e-01 -3.927857024329048929e-01
5.910714183534895305e-01 6.546428373881749696e-01 -2.618571349552698546e-01
5.910714183534895305e-01 6.546428373881749696e-01 -1.309285674776349273e-01
5.910714183534895305e-01 6.546428373881749696e-01 0.000000000000000000e+00
5.910714183534895305e-01 6.546428373881749696e-01 1.309285674776350383e-01
5.910714183534895305e-01 6.546428373881749696e-01 2.618571349552700767e-01
5.910714183534895305e-01 6.546428373881749696e-01 3.927857024329051150e-01
5.910714183534895305e-01 6.546428373881749696e-01 5.237142699105399313e-01
5.910714183534895305e-01 6.546428373881749696e-01 6.546428373881749696e-01
5.910714183534895305e-01 6.546428373881749696e-01 7.855714048658100079e-01
7.092857020241873922e-01 6.546428373881749696e-01 -7.855714048658097859e-01
7.092857020241873922e-01 6.546428373881749696e-01 -6.546428373881748586e-01
7.092857020241873922e-01 6.546428373881749696e-01 -5.237142699105399313e-01
7.092857020241873922e-01 6.546428373881749696e-01 -3.927857024329048929e-01
7.092857020241873922e-01 6.546428373881749696e-01 -2.618571349552698546e-01
7.092857020241873922e-01 6.546428373881749696e-01 -1.309285674776349273e-01
7.092857020241873922e-01 6.546428373881749696e-01 0.000000000000000000e+00
7.092857020241873922e-01 6.546428373881749696e-01 1.309285674776350383e-01
7.092857020241873922e-01 6.546428373881749696e-01 2.618571349552700767e-01
7.092857020241873922e-01 6.546428373881749696e-01 3.927857024329051150e-01
7.092857020241873922e-01 6.546428373881749696e-01 5.237142699105399313e-01
7.092857020241873922e-01 6.546428373881749696e-01 6.546428373881749696e-01
7.092857020241873922e-01 6.546428373881749696e-01 7.855714048658100079e-01
8.274999856948852539e-01 6.546428373881749696e-01 -7.855714048658097859e-01
8.274999856948852539e-01 6.546428373881749696e-01 -6.546428373881748586e-01
8.274999856948852539e-01 6.546428373881749696e-01 -3.927857024329048929e-01
8.274999856948852539e-01 6.546428373881749696e-01 -1.309285674776349273e-01
8.274999856948852539e-01 6.546428373881749696e-01 0.000000000000000000e+00
8.274999856948852539e-01 6.546428373881749696e-01 2.618571349552700767e-01
-8.274999856948852539e-01 7.855714048658100079e-01 -7.855714048658097859e-01
-8.274999856948852539e-01 7.855714048658100079e-01 -6.546428373881748586e-01
-8.274999856948852539e-01 7.855714048658100079e-01 -5.237142699105399313e-01
-8.274999856948852539e-01 7.855714048658100079e-01 -3.927857024329048929e-01
-8.274999856948852539e-01 7.855714048658100079e-01 -1.309285674776349273e-01
-8.274999856948852539e-01 7.855714048658100079e-01 0.000000000000000000e+00
-8.274999856948852539e-01 7.855714048658100079e-01 1.309285674776350383e-01
-8.274999856948852539e-01 7.855714048658100079e-01 2.618571349552700767e-01
-7.092857020241873922e-01 7.855714048658100079e-01 -7.855714048658097859e-01
-7.092857020241873922e-01 7.855714048658100079e-01 -6.546428373881748586e-01
-7.092857020241873922e-01 7.855714048658100079e-01 -5.237142699105399313e-01
-7.092857020241873922e-01 7.855714048658100079e-01 -3.927857024329048929e-01
-7.092857020241873922e-01 7.855714048658100079e-01 -2.618571349552698546e-01
-7.092857020241873922e-01 7.855714048658100079e-01 -1.309285674776349273e-01
-7.092857020241873922e-01 7.855714048658100079e-01 0.000000000000000000e+00
-7.092857020241873922e-01 7.855714048658100079e-01 1.309285674776350383e-01
-7.092857020241873922e-01 7.855714048658100079e-01 2.618571349552700767e-01
-7.092857020241873922e-01 7.855714048658100079e-01 3.927857024329051150e-01
-7.092857020241873922e-01 7.855714048658100079e-01 5.237142699105399313e-01
-7.092857020241873922e-01 7.855714048658100079e-01 6.546428373881749696e-01
-7.092857020241873922e-01 7.855714048658100079e-01 7.855714048658100079e-01
-5.910714183534895305e-01 7.855714048658100079e-01 -9.164999723434448242e-01
-5.910714183534895305e-01 7.855714048658100079e-01 -7.855714048658097859e-01
-5.910714183534895305e-01 7.855714048658100079e-01 -6.546428373881748586e-01
-5.910714183534895305e-01 7.855714048658100079e-01 -5.237142699105399313e-01
-5.910714183534895305e-01 7.855714048658100079e-01 -3.927857024329048929e-01
-5.910714183534895305e-01 7.855714048658100079e-01 -2.618571349552698546e-01
-5.910714183534895305e-01 7.855714048658100079e-01 -1.309285674776349273e-01
-5.910714183534895305e-01 7.855714048658100079e-01 0.000000000000000000e+00
-5.910714183534895305e-01 7.855714048658100079e-01 1.309285674776350383e-01
-5.910714183534895305e-01 7.855714048658100079e-01 2.618571349552700767e-01
-5.910714183534895305e-01 7.855714048658100079e-01 3.927857024329051150e-01
-5.910714183534895305e-01 7.855714048658100079e-01 5.237142699105399313e-01
-5.910714183534895305e-01 7.855714048658100079e-01 6.546428373881749696e-01
-5.910714183534895305e-01 7.855714048658100079e-01 7.855714048658100079e-01
-5.910714183534895305e-01 7.855714048658100079e-01 9.164999723434448242e-01
-4.728571346827915578e-01 7.855714048658100079e-01 -9.164999723434448242e-01
-4.728571346827915578e-01 7.855714048658100079e-01 -7.855714048658097859e-01
-4.728571346827915578e-01 7.855714048658100079e-01 -6.546428373881748586e-01
-4.728571346827915578e-01 7.855714048658100079e-01 -5.237142699105399313e-01
-4.728571346827915578e-01 7.855714048658100079e-01 -3.927857024329048929e-01
-4.728571346827915578e-01 7.855714048658100079e-01 -2.618571349552698546e-01
-4.728571346827915578e-01 7.855714048658100079e-01 -1.309285674776349273e-01
-4.728571346827915578e-01 7.855714048658100079e-01 0.000000000000000000e+00
-4.728571346827915578e-01 7.855714048658100079e-01 1.309285674776350383e-01
-4.728571346827915578e-01 7.855714048658100079e-01 2.618571349552700767e-01
-4.728571346827915578e-01 7.855714048658100079e-01 3.927857024329051150e-01
-4.728571346827915578e-01 7.855714048658100079e-01 5.237142699105399313e-01
-4.728571346827915578e-01 7.855714048658100079e-01 6.546428373881749696e-01
-4.728571346827915578e-01 7.855714048658100079e-01 7.855714048658100079e-01
-4.728571346827915578e-01 7.855714048658100079e-01 9.164999723434448242e-01
-3.546428510120936961e-01 7.855714048658100079e-01 -9.164999723434448242e-01
-3.546428510120936961e-01 7.855714048658100079e-01 -7.855714048658097859e-01
-3.546428510120936961e-01 7.855714048658100079e-01 -6.546428373881748586e-01
-3.546428510120936961e-01 7.855714048658100079e-01 -5.237142699105399313e-01
-3.546428510120936961e-01 7.855714048658100079e-01 -3.927857024329048929e-01
-3.546428510120936961e-01 7.855714048658100079e-01 -2.618571349552698546e-01
-3.546428510120936961e-01 7.855714048658100079e-01 -1.309285674776349273e-01
-3.546428510120936961e-01 7.855714048658100079e-01 0.000000000000000000e+00
-3.546428510120936961e-01 7.855714048658100079e-01 1.309285674776350383e-01
-3.546428510120936961e-01 7.855714048658100079e-01 2.618571349552700767e-01
-3.546428510120936961e-01 7.855714048658100079e-01 3.927857024329051150e-01
-3.546428510120936961e-01 7.855714048658100079e-01 5.237142699105399313e-01
-3.546428510120936961e-01 7.855714048658100079e-01 6.546428373881749696e-01
-3.546428510120936961e-01 7.855714048658100079e-01 7.855714048658100079e-01
-3.546428510120936961e-01 7.855714048658100079e-01 9.164999723434448242e-01
-2.364285673413958344e-01 7.855714048658100079e-01 -9.164999723434448242e-01
-2.364285673413958344e-01 7.855714048658100079e-01 -7.855714048658097859e-01
-2.364285673413958344e-01 7.855714048658100079e-01 -6.546428373881748586e-01
-2.364285673413958344e-01 7.855714048658100079e-01 -5.237142699105399313e-01
-2.364285673413958344e-01 7.855714048658100079e-01 -3.927857024329048929e-01
-2.364285673413958344e-01 7.855714048658100079e-01 -2.618571349552698546e-01
-2.364285673413958344e-01 7.855714048658100079e-01 -1.309285674776349273e-01
-2.364285673413958344e-01 7.855714048658100079e-01 0.000000000000000000e+00
-2.364285673413958344e-01 7.855714048658100079e-01 1.309285674776350383e-01
-2.364285673413958344e-01 7.855714048658100079e-01 2.618571349552700767e-01
-2.364285673413958344e-01 7.855714048658100079e-01 3.927857024329051150e-01
-2.364285673413958344e-01 7.855714048658100079e-01 5.237142699105399313e-01
-2.364285673413958344e-01 7.855714048658100079e-01 6.546428373881749696e-01
-2.364285673413958344e-01 7.855714048658100079e-01 7.855714048658100079e-01
-2.364285673413958344e-01 7.855714048658100079e-01 9.164999723434448242e-01
-1.182142836706978617e-01 7.855714048658100079e-01 -7.855714048658097859e-01
-1.182142836706978617e-01 7.855714048658100079e-01 -6.546428373881748586e-01
-1.182142836706978617e-01 7.855714048658100079e-01 -5.237142699105399313e-01
-1.182142836706978617e-01 7.855714048658100079e-01 -3.927857024329048929e-01
-1.182142836706978617e-01 7.855714048658100079e-01 -2.618571349552698546e-01
-1.182142836706978617e-01 7.855714048658100079e-01 -1.309285674776349273e-01
-1.182142836706978617e-01 7.855714048658100079e-01 0.000000000000000000e+00
-1.182142836706978617e-01 7.855714048658100079e-01 1.309285674776350383e-01
-1.182142836706978617e-01 7.855714048658100079e-01 2.618571349552700767e-01
-1.182142836706978617e-01 7.855714048658100079e-01 3.927857024329051150e-01
-1.182142836706978617e-01 7.855714048658100079e-01 5.237142699105399313e-01
-1.182142836706978617e-01 7.855714048658100079e-01 6.546428373881749696e-01
-1.182142836706978617e-01 7.855714048658100079e-01 7.855714048658100079e-01
0.000000000000000000e+00 7.855714048658100079e-01 -7.855714048658097859e-01
0.000000000000000000e+00 7.855714048658100079e-01 -6.546428373881748586e-01
0.000000000000000000e+00 7.855714048658100079e-01 -5.237142699105399313e-01
0.000000000000000000e+00 7.855714048658100079e-01 -3.927857024329048929e-01
0.000000000000000000e+00 7.855714048658100079e-01 -2.618571349552698546e-01
0.000000000000000000e+00 7.855714048658100079e-01 -1.309285674776349273e-01
0.000000000000000000e+00 7.855714048658100079e-01 0.000000000000000000e+00
0.000000000000000000e+00 7.855714048658100079e-01 1.309285674776350383e-01
0.000000000000000000e+00 7.855714048658100079e-01 2.618571349552700767e-01
0.000000000000000000e+00 7.855714048658100079e-01 3.927857024329051150e-01
0.000000000000000000e+00 7.855714048658100079e-01 5.237142699105399313e-01
0.000000000000000000e+00 7.855714048658100079e-01 6.546428373881749696e-01
0.000000000000000000e+00 7.855714048658100079e-01 7.855714048658100079e-01
1.182142836706978617e-01 7.855714048658100079e-01 -9.164999723434448242e-01
1.182142836706978617e-01 7.855714048658100079e-01 -7.855714048658097859e-01
1.182142836706978617e-01 7.855714048658100079e-01 -6.546428373881748586e-01
1.182142836706978617e-01 7.855714048658100079e-01 -5.237142699105399313e-01
1.182142836706978617e-01 7.855714048658100079e-01 -3.927857024329048929e-01
1.182142836706978617e-01 7.855714048658100079e-01 -2.618571349552698546e-01
1.182142836706978617e-01 7.855714048658100079e-01 -1.309285674776349273e-01
1.182142836706978617e-01 7.855714048658100079e-01 0.000000000000000000e+00
1.182142836706978617e-01 7.855714048658100079e-01 1.309285674776350383e-01
1.182142836706978617e-01 7.855714048658100079e-01 2.618571349552700767e-01
1.182142836706978617e-01 7.855714048658100079e-01 3.927857024329051150e-01
1.182142836706978617e-01 7.855714048658100079e-01 5.237142699105399313e-01
1.182142836706978617e-01 7.855714048658100079e-01 6.546428373881749696e-01
1.182142836706978617e-01 7.855714048658100079e-01 7.855714048658100079e-01
1.182142836706978617e-01 7.855714048658100079e-01 9.164999723434448242e-01
2.364285673413957234e-01 7.855714048658100079e-01 -7.855714048658097859e-01
2.364285673413957234e-01 7.855714048658100079e-01 -6.546428373881748586e-01
2.364285673413957234e-01 7.855714048658100079e-01 -5.237142699105399313e-01
2.364285673413957234e-01 7.855714048658100079e-01 -3.927857024329048929e-01
2.364285673413957234e-01 7.855714048658100079e-01 -2.618571349552698546e-01
2.364285673413957234e-01 7.855714048658100079e-01 -1.309285674776349273e-01
2.364285673413957234e-01 7.855714048658100079e-01 0.000000000000000000e+00
2.364285673413957234e-01 7.855714048658100079e-01 1.309285674776350383e-01
2.364285673413957234e-01 7.855714048658100079e-01 2.618571349552700767e-01
2.364285673413957234e-01 7.855714048658100079e-01 3.927857024329051150e-01
2.364285673413957234e-01 7.855714048658100079e-01 5.237142699105399313e-01
2.364285673413957234e-01 7.855714048658100079e-01 6.546428373881749696e-01
2.364285673413957234e-01 7.855714048658100079e-01 7.855714048658100079e-01
3.546428510120935851e-01 7.855714048658100079e-01 -9.164999723434448242e-01
3.546428510120935851e-01 7.855714048658100079e-01 -7.855714048658097859e-01
3.546428510120935851e-01 7.855714048658100079e-01 -6.546428373881748586e-01
3.546428510120935851e-01 7.855714048658100079e-01 -5.237142699105399313e-01
3.546428510120935851e-01 7.855714048658100079e-01 -3.927857024329048929e-01
3.546428510120935851e-01 7.855714048658100079e-01 -2.618571349552698546e-01
3.546428510120935851e-01 7.855714048658100079e-01 -1.309285674776349273e-01
3.546428510120935851e-01 7.855714048658100079e-01 0.000000000000000000e+00
3.546428510120935851e-01 7.855714048658100079e-01 1.309285674776350383e-01
3.546428510120935851e-01 7.855714048658100079e-01 2.618571349552700767e-01
3.546428510120935851e-01 7.855714048658100079e-01 3.927857024329051150e-01
3.546428510120935851e-01 7.855714048658100079e-01 5.237142699105399313e-01
3.546428510120935851e-01 7.855714048658100079e-01 6.546428373881749696e-01
3.546428510120935851e-01 7.855714048658100079e-01 7.855714048658100079e-01
3.546428510120935851e-01 7.855714048658100079e-01 9.164999723434448242e-01
4.728571346827914468e-01 7.855714048658100079e-01 -9.164999723434448242e-01
4.728571346827914468e-01 7.855714048658100079e-01 -7.855714048658097859e-01
4.728571346827914468e-01 7.855714048658100079e-01 -6.546428373881748586e-01
4.728571346827914468e-01 7.855714048658100079e-01 -5.237142699105399313e-01
4.728571346827914468e-01 7.855714048658100079e-01 -3.927857024329048929e-01
4.728571346827914468e-01 7.855714048658100079e-01 -2.618571349552698546e-01
4.728571346827914468e-01 7.855714048658100079e-01 -1.309285674776349273e-01
4.728571346827914468e-01 7.855714048658100079e-01 0.000000000000000000e+00
4.728571346827914468e-01 7.855714048658100079e-01 1.309285674776350383e-01
4.728571346827914468e-01 7.855714048658100079e-01 2.618571349552700767e-01
4.728571346827914468e-01 7.855714048658100079e-01 3.927857024329051150e-01
4.728571346827914468e-01 7.855714048658100079e-01 5.237142699105399313e-01
4.728571346827914468e-01 7.855714048658100079e-01 6.546428373881749696e-01
4.728571346827914468e-01 7.855714048658100079e-01 7.855714048658100079e-01
4.728571346827914468e-01 7.855714048658100079e-01 9.164999723434448242e-01
5.910714183534895305e-01 7.855714048658100079e-01 -7.855714048658097859e-01
5.910714183534895305e-01 7.855714048658100079e-01 -6.546428373881748586e-01
5.910714183534895305e-01 7.855714048658100079e-01 -5.237142699105399313e-01
5.910714183534895305e-01 7.855714048658100079e-01 -3.927857024329048929e-01
5.910714183534895305e-01 7.855714048658100079e-01 -2.618571349552698546e-01
5.910714183534895305e-01 7.855714048658100079e-01 -1.309285674776349273e-01
5.910714183534895305e-01 7.855714048658100079e-01 0.000000000000000000e+00
5.910714183534895305e-01 7.855714048658100079e-01 1.309285674776350383e-01
5.910714183534895305e-01 7.855714048658100079e-01 2.618571349552700767e-01
5.910714183534895305e-01 7.855714048658100079e-01 3.927857024329051150e-01
5.910714183534895305e-01 7.855714048658100079e-01 5.237142699105399313e-01
5.910714183534895305e-01 7.855714048658100079e-01 6.546428373881749696e-01
5.910714183534895305e-01 7.855714048658100079e-01 7.855714048658100079e-01
7.092857020241873922e-01 7.855714048658100079e-01 -7.855714048658097859e-01
7.092857020241873922e-01 7.855714048658100079e-01 -6.546428373881748586e-01
7.092857020241873922e-01 7.855714048658100079e-01 -5.237142699105399313e-01
7.092857020241873922e-01 7.855714048658100079e-01 -3.927857024329048929e-01
7.092857020241873922e-01 7.855714048658100079e-01 -2.618571349552698546e-01
7.092857020241873922e-01 7.855714048658100079e-01 -1.309285674776349273e-01
7.092857020241873922e-01 7.855714048658100079e-01 0.000000000000000000e+00
7.092857020241873922e-01 7.855714048658100079e-01 1.309285674776350383e-01
7.092857020241873922e-01 7.855714048658100079e-01 2.618571349552700767e-01
7.092857020241873922e-01 7.855714048658100079e-01 3.927857024329051150e-01
7.092857020241873922e-01 7.855714048658100079e-01 5.237142699105399313e-01
7.092857020241873922e-01 7.855714048658100079e-01 6.546428373881749696e-01
7.092857020241873922e-01 7.855714048658100079e-01 7.855714048658100079e-01
8.274999856948852539e-01 7.855714048658100079e-01 -7.855714048658097859e-01
8.274999856948852539e-01 7.855714048658100079e-01 -6.546428373881748586e-01
8.274999856948852539e-01 7.855714048658100079e-01 -3.927857024329048929e-01
8.274999856948852539e-01 7.855714048658100079e-01 -1.309285674776349273e-01
8.274999856948852539e-01 7.855714048658100079e-01 0.000000000000000000e+00
